NCOLS 238
NROWS 24
XLLCORNER 69.895583261
YLLCORNER -49.4785
CELLSIZE 0.000999999999999984 
NODATA_value -3.4e+38 
-2.00001287460327 -2.00003600120544 -2.00006175041199 -2.0000901222229 -2.00012111663818 -2.00015544891357 -2.00019502639771 -2.00009274482727 -2.00014996528625 -2.00022435188293 -2.00032043457031 -2.0004460811615 -2.00046277046204 -2.00068306922913 -2.00098419189453 -2.00154113769531 -2.00190043449402 -2.00296354293823 -2.0037214756012 -2.00453901290894 -2.00582027435303 -2.00727295875549 -2.00732398033142 -2.00699257850647 -2.00523209571838 -2.00019574165344 -1.97809100151062 -1.88715600967407 -1.77434778213501 -1.64881670475006 -1.51061904430389 -1.3787933588028 -1.34446716308594 -1.31968235969543 -1.28587484359741 -1.24524986743927 -1.20825970172882 -1.19928193092346 -1.19696545600891 -1.19225370883942 -1.18419826030731 -1.1759147644043 -1.17725372314453 -1.17928910255432 -1.17982161045074 -1.17801034450531 -1.17825269699097 -1.20092129707336 -1.22016716003418 -1.2279007434845 -1.22200393676758 -1.21437382698059 -1.25596117973328 -1.28984427452087 -1.29917621612549 -1.28451561927795 -1.26174366474152 -1.28563714027405 -1.30713891983032 -1.31594944000244 -1.3147280216217 -1.31163382530212 -1.32689237594604 -1.34775221347809 -1.37129414081573 -1.39712202548981 -1.42483150959015 -1.45579814910889 -1.48900306224823 -1.52401256561279 -1.56023275852203 -1.597651720047 -1.63549542427063 -1.67401456832886 -1.71284103393555 -1.75172758102417 -1.7905375957489 -1.82877886295319 -1.86616492271423 -1.90148019790649 -1.9338436126709 -1.96160387992859 -1.98140513896942 -1.9936842918396 -3.4e+38 -3.4e+38 -3.4e+38 -3.4e+38 -3.4e+38 -3.4e+38 -3.4e+38 -3.4e+38 -3.4e+38 -3.4e+38 -2.08366632461548 -2.01147079467773 -1.90240001678467 -1.88958644866943 -1.84154319763184 -1.7676750421524 -1.67918753623962 -1.6033616065979 -1.64044117927551 -1.6953558921814 -1.74656474590302 -1.7954421043396 -1.85929298400879 -2.01714181900024 -3.4e+38 -3.4e+38 -3.4e+38 -3.4e+38 -3.4e+38 -3.4e+38 -3.4e+38 -3.4e+38 -3.4e+38 -2.35150146484375 -3.43115234375 -4.77023983001709 -6.21137380599976 -7.73863887786865 -9.4007453918457 -11.2565822601318 -13.3428268432617 -15.4660310745239 -16.7408256530762 -17.8698291778564 -16.7671375274658 -13.0259666442871 -21.0199527740479 -21.7913551330566 -20.9804382324219 -20.5019626617432 -20.7258834838867 -21.8911876678467 -24.1311054229736 -26.7859401702881 -24.4416217803955 -22.728982925415 -20.2712669372559 -11.7096910476685 -6.27786064147949 -4.35768222808838 -3.59726047515869 -2.96356153488159 -2.84761476516724 -2.92855834960938 -2.92120718955994 -2.77073001861572 -2.54351401329041 -2.34588217735291 -2.31992411613464 -2.32649278640747 -2.31822633743286 -2.29097747802734 -2.3185133934021 -2.6867733001709 -3.09301948547363 -3.43132472038269 -3.66168522834778 -3.77625393867493 -4.32961177825928 -4.97049140930176 -5.51156234741211 -5.91917896270752 -6.30679607391357 -7.14736223220825 -7.95557403564453 -8.58752155303955 -9.03350353240967 -9.38911247253418 -10.0000734329224 -10.5456962585449 -10.9405956268311 -11.1960983276367 -11.4517011642456 -12.182897567749 -12.9922409057617 -13.8059568405151 -14.6728754043579 -15.7384376525879 -17.3780612945557 -19.18821144104 -21.0197868347168 -22.807954788208 -24.5390167236328 -26.3178005218506 -27.8945293426514 -29.1346302032471 -29.9500465393066 -30.2812919616699 -30.090648651123 -29.3876113891602 -28.1982955932617 -26.6024074554443 -24.7396850585938 -22.8383445739746 -20.9330158233643 -19.1066360473633 -17.4377708435059 -15.9617118835449 -14.6220760345459 -13.513617515564 -12.6450710296631 -12.0033807754517 -11.6160974502563 -11.6595592498779 -11.920825958252 -12.332447052002 -12.8722887039185 -13.5296020507812 -14.3104343414307 -15.1748075485229 -16.0968818664551 -17.0551719665527 -18.0306396484375 -19.0012016296387 -19.9516735076904 -20.8592872619629 -21.7088623046875 -22.4895324707031 -23.1934032440186 -23.824197769165 -24.3698978424072 -24.8281936645508 -25.2179012298584 -25.5864334106445 -25.8931293487549 -26.1039657592773 -26.227689743042 -26.3672275543213 -26.9210948944092 -27.5433158874512 -28.1335353851318 -28.6828651428223 -29.3181457519531 -30.5726642608643
-2.00013136863708 -2.00015592575073 -2.00018429756165 -2.00021576881409 -2.00025010108948 -2.00029039382935 -2.00018978118896 -2.00024914741516 -2.0001757144928 -2.00027394294739 -2.00040173530579 -2.00056719779968 -2.00063252449036 -2.00090956687927 -2.00127005577087 -2.00173449516296 -2.00246620178223 -2.00319170951843 -2.00469875335693 -2.00541400909424 -2.00647664070129 -2.00756812095642 -2.00780606269836 -2.00603151321411 -2.00153017044067 -1.98995530605316 -1.96044588088989 -1.89694023132324 -1.81369781494141 -1.72059440612793 -1.62227070331573 -1.5282998085022 -1.45931172370911 -1.39761972427368 -1.33673965930939 -1.27900767326355 -1.23380720615387 -1.21416449546814 -1.2048476934433 -1.19638097286224 -1.18532192707062 -1.17601978778839 -1.17581534385681 -1.1784770488739 -1.17837285995483 -1.1756945848465 -1.1772084236145 -1.19088423252106 -1.20605850219727 -1.21132969856262 -1.20813357830048 -1.20804703235626 -1.22963237762451 -1.25143253803253 -1.26132917404175 -1.25863933563232 -1.25382924079895 -1.26599216461182 -1.28094339370728 -1.29194724559784 -1.29867243766785 -1.30570197105408 -1.32029438018799 -1.34015476703644 -1.36372709274292 -1.3900443315506 -1.41858124732971 -1.44955360889435 -1.48227715492249 -1.51665925979614 -1.55230319499969 -1.58910512924194 -1.62680387496948 -1.66512846946716 -1.70409274101257 -1.7436900138855 -1.78358459472656 -1.82384490966797 -1.86357820034027 -1.90249872207642 -1.93968570232391 -1.97211384773254 -1.99195551872253 -3.4e+38 -3.4e+38 -3.4e+38 -3.4e+38 -3.4e+38 -3.4e+38 -3.4e+38 -3.4e+38 -3.4e+38 -3.4e+38 -3.4e+38 -3.4e+38 -3.4e+38 -2.01391386985779 -1.99119639396667 -1.88695585727692 -1.79963159561157 -1.73889183998108 -1.70504915714264 -1.71452355384827 -1.74807119369507 -1.80066132545471 -1.87405276298523 -1.96113562583923 -3.4e+38 -3.4e+38 -3.4e+38 -3.4e+38 -3.4e+38 -3.4e+38 -3.4e+38 -3.4e+38 -3.4e+38 -3.4e+38 -3.17829918861389 -3.24767875671387 -4.8386378288269 -6.48630857467651 -8.1994743347168 -10.061710357666 -12.2345380783081 -15.0501441955566 -19.0863780975342 -24.6870822906494 -26.8681125640869 -25.3451633453369 -25.2176189422607 -25.0592823028564 -24.6288547515869 -23.8707466125488 -23.0557098388672 -22.4471435546875 -22.4403228759766 -22.6956386566162 -21.5867786407471 -19.2024726867676 -17.8216114044189 -13.8425073623657 -6.27518033981323 -3.4e+38 -2.68057680130005 -2.72016096115112 -2.80035257339478 -2.84761476516724 -2.92855834960938 -2.92120718955994 -2.77073001861572 -2.57725381851196 -2.40363478660583 -2.32842755317688 -2.29489493370056 -2.2672061920166 -2.24272704124451 -2.27760553359985 -2.47642517089844 -2.73812437057495 -3.02955746650696 -3.36974859237671 -2.67301297187805 -2.83394813537598 -4.00720834732056 -4.41467571258545 -4.78747701644897 -5.20592641830444 -5.83401250839233 -6.47701072692871 -7.01581001281738 -7.43212604522705 -7.80396223068237 -8.26837635040283 -8.70684814453125 -9.04817581176758 -9.30824851989746 -9.60790634155273 -10.1529226303101 -10.8365144729614 -11.6271800994873 -12.6079444885254 -13.9514293670654 -15.7844886779785 -17.904239654541 -20.151388168335 -22.4356937408447 -24.7140007019043 -26.9648895263672 -29.0125331878662 -30.693302154541 -31.863748550415 -32.4324188232422 -32.3823699951172 -31.6864242553711 -30.3523120880127 -28.4920177459717 -26.2889709472656 -23.9619941711426 -21.6556205749512 -19.4883518218994 -17.542610168457 -15.863899230957 -14.4620971679688 -13.3477458953857 -12.5121088027954 -11.9452819824219 -11.6582441329956 -11.687050819397 -11.9554834365845 -12.4107570648193 -13.0214138031006 -13.7661924362183 -14.6296606063843 -15.5841112136841 -16.6046047210693 -17.6664581298828 -18.7447566986084 -19.8177795410156 -20.8589496612549 -21.8541660308838 -22.7821464538574 -23.6289157867432 -24.3862781524658 -25.047815322876 -25.6198463439941 -26.1049785614014 -26.5174312591553 -26.8935966491699 -27.2004203796387 -27.4529266357422 -27.6650791168213 -27.9111328125 -28.3257999420166 -28.8254413604736 -29.3689842224121 -29.9623470306396 -30.6822872161865 -31.6871910095215
-3.4e+38 -2.00012421607971 -2.00015497207642 -2.00018811225891 -2.00022482872009 -2.00026845932007 -2.00032186508179 -2.00024008750916 -2.00032806396484 -2.00029516220093 -2.00044631958008 -2.00064158439636 -2.00074076652527 -2.00090718269348 -2.00145602226257 -2.00196075439453 -2.00274300575256 -2.00368452072144 -2.00468111038208 -2.00609374046326 -2.00740694999695 -2.00827550888062 -2.00821995735168 -2.00616908073425 -2.00118732452393 -1.99021077156067 -1.96653032302856 -1.92067408561707 -1.86234748363495 -1.79972195625305 -1.73662710189819 -1.66824018955231 -1.57840275764465 -1.484503865242 -1.39287912845612 -1.3079149723053 -1.24267542362213 -1.22253084182739 -1.21644020080566 -1.20512795448303 -1.18642103672028 -1.17010390758514 -1.17533540725708 -1.18276703357697 -1.18258142471313 -1.17450940608978 -1.1685802936554 -1.18452620506287 -1.20016896724701 -1.20527279376984 -1.19827389717102 -1.19164454936981 -1.20678126811981 -1.22488808631897 -1.23454225063324 -1.23514783382416 -1.23517441749573 -1.2462100982666 -1.26075077056885 -1.27368235588074 -1.28466618061066 -1.29634857177734 -1.31301462650299 -1.33357810974121 -1.3573979139328 -1.38382959365845 -1.41252553462982 -1.44313728809357 -1.47531580924988 -1.50901126861572 -1.54402637481689 -1.58031487464905 -1.61753487586975 -1.65579295158386 -1.69504368305206 -1.73523211479187 -1.77658033370972 -1.8189777135849 -1.86182737350464 -1.90463995933533 -1.94693946838379 -1.98603975772858 -3.4e+38 -3.4e+38 -3.4e+38 -3.4e+38 -3.4e+38 -3.4e+38 -3.4e+38 -3.4e+38 -3.4e+38 -3.4e+38 -3.4e+38 -3.4e+38 -3.4e+38 -3.4e+38 -3.4e+38 -3.4e+38 -1.89354145526886 -1.80816292762756 -1.77939474582672 -1.77839970588684 -1.77541565895081 -1.79082775115967 -1.83731806278229 -1.92512512207031 -3.4e+38 -3.4e+38 -3.4e+38 -3.4e+38 -3.4e+38 -3.4e+38 -3.4e+38 -3.4e+38 -3.4e+38 -3.4e+38 -3.4e+38 -3.10895872116089 -3.10891962051392 -4.90621280670166 -6.70717287063599 -8.51471614837646 -10.4040355682373 -12.5182027816772 -15.2134037017822 -19.2901725769043 -25.5720481872559 -25.5061016082764 -26.2674942016602 -28.2393531799316 -27.8078117370605 -27.4410591125488 -26.7863960266113 -25.5689697265625 -23.9705104827881 -23.1103897094727 -21.8225345611572 -21.1815853118896 -19.3439846038818 -15.8556699752808 -10.0167608261108 -4.61397171020508 -3.09712147712708 -2.94297337532043 -2.64099264144897 -2.78701043128967 -2.81532764434814 -2.84925389289856 -2.83530163764954 -3.4e+38 -2.33913850784302 -2.38465976715088 -2.32717943191528 -2.2953028678894 -2.24560785293579 -2.16704773902893 -2.12879395484924 -2.22650933265686 -2.37026786804199 -2.503014087677 -2.61621284484863 -2.67301297187805 -2.83394813537598 -3.13236808776855 -3.42829847335815 -3.68858814239502 -4.00621604919434 -4.5694785118103 -5.14995908737183 -5.60944271087646 -5.93171501159668 -6.21383142471313 -6.63142156600952 -7.01984405517578 -7.28824996948242 -7.44503307342529 -7.61646604537964 -8.04454040527344 -8.61698436737061 -9.30813026428223 -10.2557754516602 -11.7807950973511 -13.9734716415405 -16.536678314209 -19.2840442657471 -22.1122703552246 -24.972505569458 -27.8483562469482 -30.5230007171631 -32.7800102233887 -34.3944053649902 -35.2200927734375 -35.3340301513672 -34.6384735107422 -33.0491714477539 -30.7464904785156 -27.9951972961426 -25.0917472839355 -22.2657089233398 -19.6704807281494 -17.3973693847656 -15.5023403167725 -14.0351371765137 -12.9290866851807 -12.1388397216797 -11.6421680450439 -11.4324321746826 -11.5071258544922 -11.8263988494873 -12.3514089584351 -13.0510330200195 -13.8987636566162 -14.868631362915 -15.9371824264526 -17.078556060791 -18.2653713226318 -19.4704189300537 -20.6641464233398 -21.8225479125977 -22.9181060791016 -23.9348945617676 -24.8586883544922 -25.6790256500244 -26.3833198547363 -26.9720706939697 -27.4564533233643 -27.8720397949219 -28.2673721313477 -28.6080532073975 -28.8740882873535 -29.1075878143311 -29.3697776794434 -29.7332534790039 -30.1648693084717 -30.6509628295898 -31.2070350646973 -31.8852653503418 -32.7557411193848
-2.0000376701355 -2.00009346008301 -2.00012373924255 -2.00015664100647 -2.00019288063049 -2.00023627281189 -2.00028991699219 -2.00035977363586 -2.00045275688171 -2.0004301071167 -2.00059700012207 -2.00066256523132 -2.00078272819519 -2.00096988677979 -2.00138878822327 -2.0020604133606 -2.00286149978638 -2.00352716445923 -2.0048463344574 -2.0059802532196 -2.00759339332581 -2.00916719436646 -2.00974202156067 -2.00835275650024 -2.00536179542542 -2.00050282478333 -1.98809778690338 -1.95183229446411 -1.91189515590668 -1.87815952301025 -1.85422682762146 -1.82356119155884 -1.70339405536652 -1.57423901557922 -1.44987332820892 -1.32715237140656 -1.22232437133789 -1.22541308403015 -1.23526382446289 -1.22447729110718 -1.19072699546814 -1.15211510658264 -1.17721235752106 -1.1978907585144 -1.19714999198914 -1.17514705657959 -1.14890706539154 -1.18244111537933 -1.20983457565308 -1.21290576457977 -1.19351053237915 -1.16774296760559 -1.19120275974274 -1.21286296844482 -1.22078263759613 -1.21711122989655 -1.2108336687088 -1.22571063041687 -1.24346315860748 -1.25880920886993 -1.27185261249542 -1.28479588031769 -1.30447018146515 -1.32682251930237 -1.35138034820557 -1.37767267227173 -1.40582704544067 -1.43597340583801 -1.46765029430389 -1.50070023536682 -1.5349760055542 -1.57063865661621 -1.60741555690765 -1.64564561843872 -1.68523144721985 -1.72608065605164 -1.76853275299072 -1.8136191368103 -1.859708070755 -1.90591311454773 -1.95056843757629 -1.98918235301971 -3.4e+38 -3.4e+38 -3.4e+38 -3.4e+38 -3.4e+38 -3.4e+38 -3.4e+38 -3.4e+38 -3.4e+38 -3.4e+38 -3.4e+38 -3.4e+38 -3.4e+38 -3.4e+38 -3.4e+38 -3.4e+38 -3.4e+38 -1.79148685932159 -1.80773317813873 -1.85419487953186 -1.82264399528503 -1.80897867679596 -1.82740330696106 -1.88133037090302 -3.4e+38 -3.4e+38 -3.4e+38 -3.4e+38 -3.4e+38 -3.4e+38 -3.4e+38 -3.4e+38 -3.4e+38 -3.4e+38 -3.4e+38 -3.18027544021606 -3.10899758338928 -5.04734086990356 -6.9407901763916 -8.75479316711426 -10.5148553848267 -12.1612987518311 -13.6007795333862 -14.6747922897339 -15.4416637420654 -18.7235469818115 -21.028076171875 -27.1950492858887 -29.1565456390381 -30.2459239959717 -30.31862449646 -29.1146354675293 -26.8981952667236 -27.4274787902832 -26.6755275726318 -26.9022579193115 -22.1038970947266 -16.7701053619385 -10.7831382751465 -4.61397171020508 -3.09712147712708 -2.94297337532043 -2.9186577796936 -2.92454719543457 -2.77886080741882 -2.76956367492676 -2.73390030860901 -3.4e+38 -3.4e+38 -2.29361748695374 -2.31884121894836 -2.33282470703125 -2.27108144760132 -2.08120155334473 -1.88604879379272 -1.95190942287445 -2.01537752151489 -1.99327850341797 -1.86021983623505 -1.69670951366425 -2.00323605537415 -2.3358747959137 -2.54852104187012 -2.61883807182312 -2.68729043006897 -3.35712504386902 -3.98316597938538 -4.38164615631104 -4.5402946472168 -4.6023154258728 -5.09904289245605 -5.51103496551514 -5.69374799728394 -5.63751935958862 -5.49161624908447 -5.87955904006958 -6.35461473464966 -6.82834815979004 -7.48880004882812 -9.12126731872559 -11.8926258087158 -15.0460557937622 -18.3821468353271 -21.8067436218262 -25.2850437164307 -28.976978302002 -32.4729995727539 -35.521354675293 -37.7251205444336 -38.7531204223633 -39.1058006286621 -38.4755592346191 -36.4586524963379 -33.4598770141602 -29.871395111084 -26.1640071868896 -22.6644535064697 -19.5548133850098 -16.904764175415 -14.7574443817139 -13.277271270752 -12.2186031341553 -11.4950227737427 -11.0762596130371 -10.9483013153076 -11.1050310134888 -11.5105791091919 -12.1338043212891 -12.9462728500366 -13.9195718765259 -15.0185098648071 -16.2253818511963 -17.5137023925781 -18.8529281616211 -20.2099266052246 -21.5510787963867 -22.8456382751465 -24.066535949707 -25.1865253448486 -26.1909980773926 -27.085506439209 -27.8374118804932 -28.4387474060059 -28.8975830078125 -29.2609901428223 -29.7070159912109 -30.0784015655518 -30.357328414917 -30.5651340484619 -30.770149230957 -31.1129322052002 -31.5036640167236 -31.9261074066162 -32.3959312438965 -32.9601821899414 -33.7563323974609
-2.0000376701355 -2.00006294250488 -2.00009059906006 -2.00012111663818 -2.00015497207642 -2.00019383430481 -2.00024199485779 -2.00030660629272 -2.00039649009705 -2.00052428245544 -2.0007004737854 -2.00077772140503 -2.00090742111206 -2.00094962120056 -2.00136709213257 -2.00203084945679 -2.0028178691864 -2.00361204147339 -2.0046021938324 -2.00598692893982 -2.00752401351929 -2.00927352905273 -2.01069831848145 -2.01110315322876 -2.0114152431488 -2.01417827606201 -2.01967191696167 -1.98131310939789 -1.95183408260345 -1.94025933742523 -1.95741200447083 -2.00010919570923 -1.81966364383698 -1.65982484817505 -1.51391911506653 -1.35524368286133 -1.17613983154297 -1.24634623527527 -1.28179216384888 -1.27132546901703 -1.21770846843719 -1.12850379943848 -1.20132577419281 -1.24017238616943 -1.23872220516205 -1.19754767417908 -1.1221878528595 -1.20223498344421 -1.24688458442688 -1.24979722499847 -1.2122049331665 -1.14227759838104 -1.1966016292572 -1.2251044511795 -1.22765111923218 -1.21220874786377 -1.1867550611496 -1.21196925640106 -1.23314380645752 -1.2491592168808 -1.26161134243011 -1.27226293087006 -1.29586434364319 -1.3198778629303 -1.34474647045135 -1.37076783180237 -1.39809584617615 -1.42763638496399 -1.45866370201111 -1.49106132984161 -1.5247278213501 -1.55958330631256 -1.59631872177124 -1.63446283340454 -1.67432248592377 -1.71578526496887 -1.75904273986816 -1.80750584602356 -1.85734415054321 -1.9071888923645 -1.95415425300598 -1.99108994007111 -3.4e+38 -3.4e+38 -3.4e+38 -3.4e+38 -3.4e+38 -3.4e+38 -3.4e+38 -3.4e+38 -3.4e+38 -3.4e+38 -3.4e+38 -3.4e+38 -3.4e+38 -3.4e+38 -3.4e+38 -3.4e+38 -3.4e+38 -3.4e+38 -1.8460305929184 -3.4e+38 -1.85536766052246 -1.81179881095886 -1.8150155544281 -1.8662269115448 -3.4e+38 -3.4e+38 -3.4e+38 -3.4e+38 -3.4e+38 -3.4e+38 -3.4e+38 -3.4e+38 -3.4e+38 -3.4e+38 -3.4e+38 -3.42203855514526 -3.25155353546143 -5.31797885894775 -7.28031444549561 -9.08215141296387 -10.7568798065186 -12.0548238754272 -12.5835456848145 -11.645751953125 -9.80442047119141 -14.7182455062866 -17.9884605407715 -25.0836925506592 -30.3137607574463 -33.6592407226562 -35.2035522460938 -35.8628768920898 -37.7648544311523 -37.7755661010742 -36.4094276428223 -31.230978012085 -24.5214824676514 -18.4421806335449 -12.8856267929077 -8.13462257385254 -5.80313920974731 -4.65636205673218 -3.94783782958984 -3.396892786026 -2.80883693695068 -2.75934958457947 -2.64550638198853 -3.4e+38 -3.4e+38 -3.4e+38 -3.4e+38 -2.42641115188599 -2.39630055427551 -2.05389738082886 -1.59334194660187 -1.73934578895569 -1.76668405532837 -1.62305188179016 -1.25922703742981 -0.682815730571747 -1.31968212127686 -1.74851608276367 -1.90150785446167 -1.74513459205627 -1.31162881851196 -2.36687111854553 -3.1055850982666 -3.44921660423279 -3.40188646316528 -3.0223069190979 -3.82157802581787 -4.31072473526001 -4.41757297515869 -4.10620450973511 -3.38235640525818 -3.92706227302551 -4.32860708236694 -4.47511386871338 -4.44204425811768 -6.07634258270264 -9.68986320495605 -13.4754486083984 -17.460262298584 -21.5527400970459 -25.6397914886475 -30.3823127746582 -34.8802223205566 -39.0634689331055 -42.1773262023926 -43.0942993164062 -43.8389053344727 -43.5721397399902 -40.7722244262695 -36.7273864746094 -31.8743686676025 -27.0421409606934 -22.6915950775146 -19.0073184967041 -15.9775352478027 -13.5331764221191 -12.1668004989624 -11.2021770477295 -10.5664653778076 -10.2398977279663 -10.2061824798584 -10.4746217727661 -10.9943819046021 -11.7409133911133 -12.6908588409424 -13.8175859451294 -15.0670299530029 -16.439037322998 -17.9037303924561 -19.4263687133789 -20.968936920166 -22.4862213134766 -23.94677734375 -25.3147449493408 -26.5583782196045 -27.653413772583 -28.6378326416016 -29.4438304901123 -30.059103012085 -30.473575592041 -30.7090091705322 -31.2545108795166 -31.6530799865723 -31.909538269043 -32.0625534057617 -32.1522064208984 -32.5031585693359 -32.8484001159668 -33.193531036377 -33.548755645752 -33.9342803955078 -34.7145652770996
-2.00000786781311 -2.00003051757812 -2.00005602836609 -2.00008249282837 -2.00011134147644 -2.00014233589172 -2.00017881393433 -2.00022840499878 -2.00030326843262 -2.00042223930359 -2.00060677528381 -2.00069212913513 -2.00082159042358 -2.00100231170654 -2.00139808654785 -2.00187849998474 -2.00247001647949 -2.00335240364075 -2.00441312789917 -2.00539660453796 -2.00679755210876 -2.00866436958313 -2.00984644889832 -2.01126790046692 -2.01174378395081 -2.01200890541077 -2.00905084609985 -1.98850643634796 -1.97030818462372 -1.96187162399292 -1.96363425254822 -1.95416557788849 -1.84659993648529 -1.72465133666992 -1.60478830337524 -1.48538100719452 -1.38182294368744 -1.38246309757233 -1.38799095153809 -1.37285554409027 -1.33626401424408 -1.29536509513855 -1.31644809246063 -1.33444249629974 -1.33201146125793 -1.30938231945038 -1.28123319149017 -1.31118440628052 -1.33438277244568 -1.33381724357605 -1.30879044532776 -1.27184331417084 -1.27651870250702 -1.27545762062073 -1.26093375682831 -1.23797369003296 -1.21738171577454 -1.22277343273163 -1.23491537570953 -1.24746823310852 -1.25920474529266 -1.27220249176025 -1.29183316230774 -1.31407904624939 -1.33791279792786 -1.3632071018219 -1.38984203338623 -1.41830408573151 -1.44834613800049 -1.48003709316254 -1.51287090778351 -1.54726672172546 -1.58368170261383 -1.62187588214874 -1.66211748123169 -1.70474338531494 -1.75045323371887 -1.80115532875061 -1.8550101518631 -1.91078090667725 -1.96512818336487 -2.01038503646851 -2.02661943435669 -3.4e+38 -3.4e+38 -3.4e+38 -3.4e+38 -3.4e+38 -3.4e+38 -3.4e+38 -3.4e+38 -3.4e+38 -3.4e+38 -3.4e+38 -3.4e+38 -3.4e+38 -3.4e+38 -3.4e+38 -3.4e+38 -3.4e+38 -3.4e+38 -3.4e+38 -3.4e+38 -1.81228744983673 -3.4e+38 -3.4e+38 -3.4e+38 -3.4e+38 -3.4e+38 -3.4e+38 -3.4e+38 -3.4e+38 -3.4e+38 -3.4e+38 -3.4e+38 -3.4e+38 -3.4e+38 -2.68694877624512 -3.5925235748291 -5.79194355010986 -7.82673406600952 -9.70409393310547 -11.4221897125244 -12.8351564407349 -13.7198696136475 -13.8634614944458 -13.3165340423584 -16.495512008667 -20.090784072876 -27.868989944458 -32.9297904968262 -37.2549819946289 -39.6568450927734 -45.3008651733398 -50.4506874084473 -53.2588653564453 -41.8428077697754 -32.796028137207 -25.5016613006592 -19.5332355499268 -14.5321350097656 -10.5210771560669 -7.8788161277771 -6.18087530136108 -5.01392459869385 -4.13665390014648 -3.42802476882935 -3.01540207862854 -2.67204141616821 -3.4e+38 -3.4e+38 -3.4e+38 -3.4e+38 -3.4e+38 -3.4e+38 -2.28331875801086 -1.98286914825439 -1.85091304779053 -1.7290450334549 -1.54734683036804 -1.28327584266663 -1.03969728946686 -1.2961151599884 -1.56481838226318 -1.70125949382782 -1.6913651227951 -1.6691929101944 -2.22693705558777 -2.73073101043701 -3.00407528877258 -3.03460836410522 -2.96152472496033 -3.31724643707275 -3.61113929748535 -3.68561172485352 -3.51783776283264 -3.20202612876892 -3.4e+38 -3.4e+38 -3.4e+38 -4.56374740600586 -5.06758499145508 -8.03598785400391 -11.8887205123901 -16.5363388061523 -21.5634670257568 -26.787899017334 -32.2234687805176 -37.5272445678711 -43.3353958129883 -48.2852172851562 -48.4942855834961 -49.3350219726562 -50.3591194152832 -45.9056167602539 -40.5723876953125 -33.8490524291992 -27.4334449768066 -22.0648555755615 -17.8478775024414 -14.6498727798462 -12.3101062774658 -10.8416595458984 -9.90158081054688 -9.3497428894043 -9.13260459899902 -9.22711181640625 -9.61666774749756 -10.2673854827881 -11.1566705703735 -12.2610292434692 -13.5521640777588 -14.9927387237549 -16.5652084350586 -18.2411231994629 -19.9828071594238 -21.7456035614014 -23.4800891876221 -25.1427745819092 -26.6922397613525 -28.0932350158691 -29.3240146636963 -30.3836402893066 -31.2476940155029 -31.9044723510742 -32.3695220947266 -32.7010612487793 -33.0869369506836 -33.387336730957 -33.5863838195801 -33.7070465087891 -33.8056449890137 -34.0074882507324 -34.2421722412109 -34.4980392456055 -34.7926559448242 -35.1678237915039 -35.7538261413574
-2.00009417533875 -2.00014638900757 -2.00016951560974 -2.00019240379333 -2.00021457672119 -2.00023460388184 -2.00025296211243 -2.00027823448181 -2.00032258033752 -2.0004141330719 -2.00046825408936 -2.00056290626526 -2.00068426132202 -2.00084042549133 -2.00119471549988 -2.00161623954773 -2.00198101997375 -2.002765417099 -2.0037055015564 -2.00483775138855 -2.00590634346008 -2.00725173950195 -2.00905823707581 -2.00969886779785 -2.01005268096924 -2.00844717025757 -2.00334930419922 -1.99097871780396 -1.97843945026398 -1.96882629394531 -1.95918369293213 -1.9341539144516 -1.86736679077148 -1.78458976745605 -1.70162713527679 -1.62457048892975 -1.56322848796844 -1.53751718997955 -1.52064192295074 -1.49975371360779 -1.4760377407074 -1.4560821056366 -1.45380294322968 -1.45396256446838 -1.45106899738312 -1.44349694252014 -1.43667495250702 -1.44349110126495 -1.44925343990326 -1.44573879241943 -1.43000662326813 -1.40430271625519 -1.37820446491241 -1.34560453891754 -1.30748569965363 -1.26888656616211 -1.24012839794159 -1.23404359817505 -1.23976218700409 -1.24903404712677 -1.2585734128952 -1.27033352851868 -1.2874721288681 -1.30793166160583 -1.33055591583252 -1.35479164123535 -1.38054144382477 -1.4078688621521 -1.43685245513916 -1.46759164333344 -1.49946749210358 -1.53324043750763 -1.56927216053009 -1.60739433765411 -1.64752817153931 -1.69061255455017 -1.73819494247437 -1.79231739044189 -1.85145962238312 -1.91465747356415 -1.98111093044281 -2.04314732551575 -3.4e+38 -3.4e+38 -3.4e+38 -3.4e+38 -3.4e+38 -3.4e+38 -3.4e+38 -3.4e+38 -3.4e+38 -3.4e+38 -3.4e+38 -3.4e+38 -3.4e+38 -3.4e+38 -3.4e+38 -3.4e+38 -3.4e+38 -3.4e+38 -3.4e+38 -3.4e+38 -3.4e+38 -3.4e+38 -3.4e+38 -3.4e+38 -3.4e+38 -3.4e+38 -3.4e+38 -3.4e+38 -3.4e+38 -3.4e+38 -3.4e+38 -3.4e+38 -3.4e+38 -3.4e+38 -2.34334897994995 -2.68694877624512 -4.5084753036499 -6.54484272003174 -8.5605297088623 -10.5180406570435 -12.410059928894 -14.1825370788574 -15.7143535614014 -16.7505302429199 -17.008186340332 -20.1470851898193 -24.2232456207275 -29.5668811798096 -32.9626159667969 -33.5903282165527 -35.3641204833984 -39.4985504150391 -42.2280082702637 -43.5868835449219 -37.571159362793 -30.8067321777344 -24.7558422088623 -19.5964736938477 -15.2628002166748 -11.7570390701294 -9.1417407989502 -7.24378347396851 -5.84724235534668 -4.7823281288147 -3.94743156433105 -3.31014108657837 -2.77055811882019 -2.52182769775391 -3.4e+38 -3.4e+38 -3.4e+38 -3.4e+38 -3.4e+38 -2.35253119468689 -2.30127191543579 -1.9896924495697 -1.77050077915192 -1.58576858043671 -1.41591668128967 -1.31685554981232 -1.42074263095856 -1.58142924308777 -1.72182929515839 -1.82768559455872 -1.97451305389404 -2.31315541267395 -2.64398312568665 -2.84958982467651 -2.91206216812134 -2.9127459526062 -3.04140281677246 -3.19117784500122 -3.25511765480042 -3.23046731948853 -3.4e+38 -3.4e+38 -3.4e+38 -3.4e+38 -3.4e+38 -4.05990982055664 -5.95822763442993 -9.73432064056396 -15.3531303405762 -21.4794826507568 -27.8746871948242 -34.0082092285156 -39.2391128540039 -46.703125 -54.8107528686523 -51.800121307373 -52.8125495910645 -57.4479370117188 -50.039176940918 -44.6235961914062 -35.0996284484863 -26.6697692871094 -20.2777366638184 -15.6948699951172 -12.534553527832 -10.4050769805908 -9.06047821044922 -8.24468421936035 -7.81910705566406 -7.73187923431396 -7.97479343414307 -8.51394844055176 -9.3159294128418 -10.3683471679688 -11.6511898040771 -13.1359024047852 -14.7894153594971 -16.5925731658936 -18.5168056488037 -20.521032333374 -22.551628112793 -24.5485572814941 -26.4553852081299 -28.2214870452881 -29.8052444458008 -31.1804161071777 -32.3365364074707 -33.2575454711914 -33.9519729614258 -34.4407768249512 -34.7800140380859 -35.049388885498 -35.2357330322266 -35.3442573547363 -35.4007186889648 -35.443244934082 -35.5244941711426 -35.6374969482422 -35.7925682067871 -36.0031623840332 -36.306209564209 -36.7515449523926
-2.00009417533875 -2.00011444091797 -2.00013470649719 -2.00015449523926 -2.00017094612122 -2.0001814365387 -2.00015473365784 -3.4e+38 -3.4e+38 -3.4e+38 -2.00030851364136 -2.00041198730469 -2.0006628036499 -2.00077843666077 -2.00107264518738 -2.00141191482544 -2.00166940689087 -2.00202512741089 -2.00280666351318 -2.00389814376831 -2.00504064559937 -2.00598073005676 -2.00720286369324 -2.00872015953064 -2.00838732719421 -2.00689244270325 -2.00298857688904 -1.99497091770172 -1.98529517650604 -1.97597396373749 -1.96447253227234 -1.94191229343414 -1.89672327041626 -1.84283840656281 -1.79340124130249 -1.75236237049103 -1.71949553489685 -1.68681824207306 -1.65712189674377 -1.63042676448822 -1.61517083644867 -1.60727739334106 -1.59207224845886 -1.580326795578 -1.57620632648468 -1.58006048202515 -1.58541858196259 -1.57942450046539 -1.57376754283905 -1.57041323184967 -1.56319677829742 -1.54266941547394 -1.48935675621033 -1.42448604106903 -1.35755848884583 -1.29403209686279 -1.24635934829712 -1.23742854595184 -1.24348104000092 -1.25111663341522 -1.25709998607635 -1.26491165161133 -1.28086686134338 -1.30084276199341 -1.32265877723694 -1.34548234939575 -1.36983263492584 -1.39638984203339 -1.42450952529907 -1.45401692390442 -1.48476719856262 -1.51740264892578 -1.55291843414307 -1.59074568748474 -1.63027834892273 -1.67271602153778 -1.72070348262787 -1.77921664714813 -1.84411656856537 -1.91378557682037 -1.98929154872894 -2.06433486938477 -3.4e+38 -3.4e+38 -3.4e+38 -3.4e+38 -3.4e+38 -3.4e+38 -3.4e+38 -3.4e+38 -3.4e+38 -3.4e+38 -3.4e+38 -3.4e+38 -3.4e+38 -3.4e+38 -3.4e+38 -3.4e+38 -3.4e+38 -3.4e+38 -1.8542103767395 -1.85450923442841 -1.91317999362946 -3.4e+38 -3.4e+38 -3.4e+38 -3.4e+38 -3.4e+38 -3.4e+38 -3.4e+38 -3.4e+38 -3.4e+38 -3.4e+38 -1.97399830818176 -1.86451208591461 -2.46771717071533 -2.34334897994995 -3.67646932601929 -5.43808555603027 -7.37217044830322 -9.36717796325684 -11.405369758606 -13.5238418579102 -15.7882823944092 -18.3151779174805 -21.226842880249 -24.303653717041 -24.6394367218018 -26.8452243804932 -30.7737655639648 -30.6147727966309 -29.6035175323486 -30.8294868469238 -32.6669960021973 -34.8996086120605 -35.1712646484375 -31.9720211029053 -27.5060939788818 -22.968132019043 -18.809642791748 -15.1794233322144 -12.1418104171753 -9.71702098846436 -7.83090591430664 -6.36850833892822 -5.22321081161499 -4.31637859344482 -3.59924221038818 -3.0168604850769 -2.60124206542969 -3.4e+38 -3.4e+38 -2.18628883361816 -2.20266389846802 -2.18961334228516 -2.35253119468689 -2.17452621459961 -1.95822215080261 -1.77817869186401 -1.63118243217468 -1.5188844203949 -1.475017786026 -1.54066467285156 -1.66816127300262 -1.81628179550171 -1.97945880889893 -2.18285512924194 -2.45799088478088 -2.71295642852783 -2.87254738807678 -2.90498566627502 -2.84181451797485 -3.4e+38 -3.4e+38 -3.4e+38 -3.4e+38 -3.4e+38 -3.4e+38 -3.4e+38 -3.4e+38 -3.4e+38 -3.4e+38 -3.4e+38 -6.45761394500732 -13.9817056655884 -21.2583637237549 -28.8884429931641 -35.4388656616211 -37.6873931884766 -42.1474533081055 -45.9386558532715 -46.0753784179688 -46.6837463378906 -44.8447875976562 -45.7557830810547 -46.9830131530762 -33.6130561828613 -23.5150508880615 -16.6517181396484 -12.1664791107178 -9.44536304473877 -7.7831392288208 -6.79796552658081 -6.23469591140747 -5.98260688781738 -6.03207492828369 -6.45077133178711 -7.1667423248291 -8.12886619567871 -9.36121273040771 -10.8466320037842 -12.553337097168 -14.4392919540405 -16.5012683868408 -18.7157077789307 -21.0347080230713 -23.3923683166504 -25.7090740203857 -27.9126472473145 -29.9373664855957 -31.7311248779297 -33.2627754211426 -34.5257987976074 -35.5043678283691 -36.206298828125 -36.6705017089844 -36.9506912231445 -37.1081962585449 -37.1695938110352 -37.1618423461914 -37.1142044067383 -37.0580139160156 -37.0191078186035 -37.011791229248 -37.0443077087402 -37.1380157470703 -37.3284225463867 -37.6695251464844
-2.00006532669067 -2.00008344650269 -2.00010180473328 -2.00011944770813 -2.00013470649719 -2.00014686584473 -2.00015473365784 -2.00014305114746 -2.0001585483551 -2.00017929077148 -2.00021171569824 -2.00027418136597 -2.00062918663025 -2.00068783760071 -2.00090527534485 -2.00099205970764 -2.0012640953064 -2.00160980224609 -2.00205326080322 -2.00276613235474 -2.00364398956299 -2.00459027290344 -2.00551533699036 -2.00691628456116 -2.00789093971252 -2.00715613365173 -2.00495767593384 -2.00018072128296 -1.99359524250031 -1.98695731163025 -1.97950911521912 -1.96627068519592 -1.93022513389587 -1.89401245117188 -1.87374150753021 -1.86799192428589 -1.86745083332062 -1.82692122459412 -1.78612911701202 -1.74892127513885 -1.74521398544312 -1.75941503047943 -1.72529292106628 -1.69921517372131 -1.69528520107269 -1.71289849281311 -1.73773860931396 -1.71049702167511 -1.6933513879776 -1.69557404518127 -1.7043844461441 -1.70310378074646 -1.60882961750031 -1.50607514381409 -1.40774250030518 -1.31007778644562 -1.22700369358063 -1.2328667640686 -1.24922001361847 -1.25696289539337 -1.25620627403259 -1.2547949552536 -1.27204704284668 -1.29297232627869 -1.31421339511871 -1.33540141582489 -1.3575187921524 -1.38364911079407 -1.41092658042908 -1.43949222564697 -1.46877062320709 -1.49971795082092 -1.53498506546021 -1.57222723960876 -1.61055421829224 -1.65029084682465 -1.69546842575073 -1.76147019863129 -1.8327043056488 -1.90495467185974 -1.97987461090088 -2.05915713310242 -3.4e+38 -3.4e+38 -3.4e+38 -3.4e+38 -3.4e+38 -3.4e+38 -3.4e+38 -3.4e+38 -3.4e+38 -3.4e+38 -3.4e+38 -3.4e+38 -3.4e+38 -3.4e+38 -3.4e+38 -3.4e+38 -3.4e+38 -1.86275219917297 -1.8542103767395 -1.89009523391724 -1.91317999362946 -1.92754364013672 -1.95107102394104 -1.96135234832764 -3.4e+38 -3.4e+38 -3.4e+38 -3.4e+38 -3.4e+38 -3.4e+38 -2.02257776260376 -1.97399830818176 -2.15252041816711 -2.46771717071533 -3.20632600784302 -4.57569313049316 -6.28234767913818 -8.15987396240234 -10.1367511749268 -12.2165660858154 -14.4869651794434 -17.0982627868652 -20.3565120697021 -24.6350479125977 -29.3366527557373 -27.7772350311279 -29.2344741821289 -27.3252944946289 -26.4705390930176 -29.2333641052246 -30.9742946624756 -30.0193386077881 -29.9861621856689 -29.329517364502 -27.1761245727539 -24.1097106933594 -20.7534103393555 -17.4879741668701 -14.5123691558838 -11.9261054992676 -9.7652759552002 -8.00434684753418 -6.58482122421265 -5.43941974639893 -4.51397609710693 -3.78437447547913 -3.18660688400269 -2.69808864593506 -2.29402494430542 -2.07292890548706 -2.18628883361816 -2.20266389846802 -2.18961334228516 -2.11206293106079 -1.96439576148987 -1.85782265663147 -1.75803828239441 -1.66461288928986 -1.59184384346008 -1.56836593151093 -1.64160299301147 -1.77138257026672 -1.93762278556824 -2.12973356246948 -2.35422325134277 -2.64345026016235 -2.90177869796753 -3.05835056304932 -3.05656886100769 -2.87134456634521 -2.60144805908203 -2.66026902198792 -3.4e+38 -3.4e+38 -3.4e+38 -3.4e+38 -3.4e+38 -3.4e+38 -3.4e+38 -3.4e+38 -3.4e+38 -12.1920032501221 -14.0296258926392 -21.4565086364746 -29.5803356170654 -33.8958473205566 -35.6503219604492 -36.5505790710449 -37.4686470031738 -38.7665214538574 -39.6297073364258 -37.7325286865234 -35.5509071350098 -32.5457344055176 -23.9029560089111 -16.4130401611328 -10.7278757095337 -7.11104488372803 -5.47316455841064 -4.62094068527222 -4.21575307846069 -4.0015983581543 -3.93159627914429 -4.06158685684204 -4.69421768188477 -5.60862827301025 -6.69687557220459 -8.11552619934082 -9.82507133483887 -11.786060333252 -13.911208152771 -16.2578678131104 -18.8101844787598 -21.5107402801514 -24.2722702026367 -26.9827556610107 -29.5517120361328 -31.8911285400391 -33.928840637207 -35.6272315979004 -37.0097160339355 -38.0312118530273 -38.7085380554199 -39.0900497436523 -39.2477760314941 -39.2638359069824 -39.1766204833984 -39.0248260498047 -38.8438682556152 -38.6617889404297 -38.4893608093262 -38.3493270874023 -38.2487144470215 -38.1929092407227 -38.2249069213867 -38.4995880126953
-2.00003528594971 -2.00005221366882 -2.0000696182251 -2.00008654594421 -2.00010204315186 -2.00011658668518 -2.00012993812561 -2.00014305114746 -2.0001585483551 -2.00017929077148 -2.00030493736267 -2.00030136108398 -2.0005955696106 -2.00058794021606 -2.00072145462036 -2.00069117546082 -2.00095009803772 -2.00097036361694 -2.00106024742126 -2.00150990486145 -2.00193357467651 -2.00268769264221 -2.00372314453125 -2.00497364997864 -2.00628352165222 -2.00769877433777 -2.00817108154297 -2.00422620773315 -2.00076508522034 -1.99787485599518 -1.99742543697357 -1.99910986423492 -1.95805382728577 -1.92759525775909 -3.4e+38 -3.4e+38 -3.4e+38 -3.4e+38 -3.4e+38 -1.83423590660095 -1.84739720821381 -1.91307640075684 -1.83752024173737 -1.79504585266113 -1.7913202047348 -1.82568752765656 -1.89175629615784 -1.81577038764954 -1.78470146656036 -3.4e+38 -1.83274638652802 -1.87923729419708 -1.71561598777771 -1.5815327167511 -1.46326160430908 -1.33396148681641 -1.18644738197327 -1.24034988880157 -1.27059006690979 -1.27474772930145 -1.26223742961884 -1.24153053760529 -1.26537418365479 -1.2873215675354 -1.30686259269714 -1.32557916641235 -1.34416770935059 -1.37034690380096 -1.39708602428436 -1.4243870973587 -1.45198035240173 -1.48022735118866 -1.51639544963837 -1.55349445343018 -1.59058785438538 -1.62657022476196 -1.6626238822937 -1.74334311485291 -1.82188606262207 -1.89239466190338 -1.94836342334747 -1.98172855377197 -2.08370208740234 -2.11848139762878 -3.4e+38 -3.4e+38 -3.4e+38 -3.4e+38 -3.4e+38 -3.4e+38 -3.4e+38 -3.4e+38 -3.4e+38 -3.4e+38 -3.4e+38 -3.4e+38 -3.4e+38 -3.4e+38 -3.4e+38 -1.81597518920898 -1.87129402160645 -1.92941272258759 -1.93092119693756 -1.94190537929535 -1.95107102394104 -1.96135234832764 -1.97751379013062 -1.93180549144745 -1.89365839958191 -1.85528373718262 -3.4e+38 -3.4e+38 -1.86623692512512 -2.07115721702576 -2.37023115158081 -2.87532329559326 -3.74664640426636 -5.24544382095337 -6.98567771911621 -8.85605239868164 -10.8091802597046 -12.8503952026367 -15.1005258560181 -17.6847801208496 -20.9779834747314 -25.6638107299805 -31.8883380889893 -27.3264293670654 -24.8505477905273 -23.26047706604 -22.6013031005859 -23.9927616119385 -25.8244934082031 -25.9267177581787 -25.6582889556885 -24.8334903717041 -23.1990947723389 -20.9603805541992 -18.4326057434082 -15.8766269683838 -13.465106010437 -11.298285484314 -9.42584228515625 -7.84894943237305 -6.53882932662964 -5.45289754867554 -4.54819869995117 -3.85635828971863 -3.27985715866089 -2.79060077667236 -2.37379026412964 -2.07292890548706 -2.0832781791687 -2.08143663406372 -2.03571510314941 -1.93212878704071 -1.76436245441437 -1.7609623670578 -1.73827111721039 -1.69920015335083 -1.66099166870117 -1.64045262336731 -1.742267370224 -1.89221370220184 -2.08049011230469 -2.2992467880249 -2.53476405143738 -2.89245986938477 -3.21893310546875 -3.44354963302612 -3.48402404785156 -3.23987007141113 -2.84258651733398 -2.66026902198792 -2.57016277313232 -3.2379732131958 -3.36927461624146 -3.95567274093628 -4.2587742805481 -5.14527750015259 -7.02466201782227 -8.57631969451904 -12.6434144973755 -12.1920032501221 -21.8760070800781 -26.3774700164795 -31.0371627807617 -32.5300827026367 -32.7307243347168 -33.3706970214844 -35.1451988220215 -35.690502166748 -33.0251846313477 -28.859432220459 -24.3825836181641 -18.9449768066406 -12.0812511444092 -7.71976375579834 -3.77624702453613 -3.4e+38 -3.4e+38 -3.4e+38 -3.4e+38 -3.4e+38 -3.4e+38 -3.4e+38 -2.90723443031311 -3.97658681869507 -5.01402711868286 -6.61237049102783 -8.54909706115723 -10.7976045608521 -13.1446924209595 -15.8048372268677 -18.7553787231445 -21.9229259490967 -25.1930675506592 -28.3926639556885 -31.4215106964111 -34.1538696289062 -36.4868698120117 -38.357177734375 -39.8760452270508 -40.9153251647949 -41.5136604309082 -41.7446632385254 -41.7047500610352 -41.5277137756348 -41.2490730285645 -40.9197578430176 -40.5798416137695 -40.256519317627 -39.9351539611816 -39.6592636108398 -39.4225578308105 -39.2060546875 -39.0129432678223 -39.2817649841309
-2.00000476837158 -2.00002121925354 -2.00003790855408 -2.00005459785461 -2.00007081031799 -2.00008654594421 -2.00010275840759 -2.00012040138245 -2.0001425743103 -2.00017499923706 -2.00024771690369 -2.00033402442932 -2.00056791305542 -2.00049829483032 -2.00041007995605 -2.00042390823364 -2.00051021575928 -2.00052499771118 -2.0002908706665 -2.00032639503479 -2.00043725967407 -2.00080633163452 -2.00196313858032 -2.00310063362122 -2.00401997566223 -2.00488781929016 -2.00583839416504 -2.00408697128296 -2.00335645675659 -2.00220227241516 -2.0000855922699 -1.99274909496307 -1.96445918083191 -1.93727469444275 -3.4e+38 -3.4e+38 -3.4e+38 -3.4e+38 -3.4e+38 -3.4e+38 -1.86602771282196 -3.4e+38 -3.4e+38 -3.4e+38 -3.4e+38 -3.4e+38 -1.86497831344604 -1.83080744743347 -3.4e+38 -3.4e+38 -1.7756427526474 -1.78625547885895 -1.72002232074738 -1.63383328914642 -1.54114055633545 -1.44237649440765 -1.3507821559906 -1.33891355991364 -1.33191013336182 -1.31516003608704 -1.29196870326996 -1.27200365066528 -1.27594923973083 -1.28779292106628 -1.30225920677185 -1.31840312480927 -1.3364804983139 -1.35899698734283 -1.38355326652527 -1.40940940380096 -1.43644523620605 -1.46561086177826 -1.49967563152313 -1.53622543811798 -1.574383020401 -1.61571741104126 -1.6658980846405 -1.74125814437866 -1.8224925994873 -1.89924776554108 -1.96448051929474 -2.01793098449707 -2.08673977851868 -2.11848139762878 -2.09503412246704 -3.4e+38 -3.4e+38 -3.4e+38 -3.4e+38 -3.4e+38 -3.4e+38 -3.4e+38 -3.4e+38 -3.4e+38 -3.4e+38 -3.4e+38 -3.4e+38 -3.4e+38 -3.4e+38 -1.81597518920898 -1.86040604114532 -1.89802348613739 -1.90276861190796 -1.90619099140167 -1.9147572517395 -1.92603647708893 -1.9362496137619 -1.93180549144745 -1.89365839958191 -1.85528373718262 -1.84031879901886 -1.78645241260529 -1.86623692512512 -2.06880259513855 -2.41434788703918 -3.03652620315552 -4.17224025726318 -5.76763391494751 -7.57667016983032 -9.47490692138672 -11.407642364502 -13.3645114898682 -15.3782958984375 -17.4645919799805 -19.6104564666748 -21.5031452178955 -21.852424621582 -20.9939670562744 -19.509183883667 -17.9996376037598 -18.4611911773682 -20.0143871307373 -21.4712009429932 -21.9857425689697 -21.8451881408691 -21.1164627075195 -19.8187618255615 -18.092227935791 -16.1353569030762 -14.1203022003174 -12.1777248382568 -10.3912811279297 -8.80669021606445 -7.44151258468628 -6.28453540802002 -5.31212425231934 -4.50151252746582 -3.84565544128418 -3.30519461631775 -2.85236001014709 -2.47856712341309 -2.20736074447632 -2.09812688827515 -2.03472185134888 -1.96762752532959 -1.8801943063736 -1.78737592697144 -1.75996923446655 -1.7544846534729 -1.75101816654205 -1.75579917430878 -1.78406667709351 -1.87759113311768 -2.03501033782959 -2.25006914138794 -2.51877307891846 -2.84416937828064 -3.24543046951294 -3.67330455780029 -4.0565185546875 -4.31912279129028 -4.39195680618286 -4.29784297943115 -4.10939359664917 -3.63216161727905 -3.2379732131958 -3.36927461624146 -3.95567274093628 -4.2587742805481 -5.14527750015259 -7.02466201782227 -8.57631969451904 -12.6434144973755 -26.2927341461182 -28.4193725585938 -29.804515838623 -30.7996730804443 -31.4523429870605 -31.7433204650879 -31.2879333496094 -30.4656238555908 -27.8875846862793 -24.1215209960938 -19.4668769836426 -14.0416698455811 -7.26069402694702 -3.4e+38 -3.4e+38 -3.4e+38 -3.4e+38 -3.4e+38 -3.4e+38 -3.4e+38 -3.4e+38 -3.4e+38 -3.4e+38 -3.4e+38 -2.6705801486969 -3.14248704910278 -4.89268922805786 -6.9431037902832 -9.33092784881592 -12.0068578720093 -15.0522680282593 -18.4808902740479 -22.2213325500488 -26.117057800293 -29.9619007110596 -33.5850639343262 -36.8232574462891 -39.5503845214844 -41.6954956054688 -43.2724609375 -44.2571563720703 -44.6973419189453 -44.6853103637695 -44.3741073608398 -43.9107246398926 -43.3778877258301 -42.8265533447266 -42.2914123535156 -41.794075012207 -41.3388748168945 -40.9442100524902 -40.6074142456055 -40.3259391784668 -40.1318740844727 -40.1711082458496
-1.99997401237488 -1.99999022483826 -2.00000667572021 -2.00002288818359 -2.00003910064697 -2.00005555152893 -2.00007295608521 -2.00009202957153 -2.00011444091797 -2.00014281272888 -2.00018286705017 -2.00022268295288 -2.00025272369385 -2.00028657913208 -2.00031185150146 -2.00030994415283 -2.00026893615723 -3.4e+38 -3.4e+38 -3.4e+38 -3.4e+38 -3.4e+38 -3.4e+38 -2.00172781944275 -2.0019416809082 -2.00195932388306 -2.00186538696289 -2.00246334075928 -2.00196838378906 -2.00270533561707 -2.00121855735779 -1.99345278739929 -1.97381496429443 -1.94974756240845 -3.4e+38 -3.4e+38 -3.4e+38 -3.4e+38 -3.4e+38 -3.4e+38 -3.4e+38 -3.4e+38 -3.4e+38 -3.4e+38 -3.4e+38 -3.4e+38 -3.4e+38 -3.4e+38 -3.4e+38 -3.4e+38 -1.79264843463898 -1.76503002643585 -1.74150681495667 -1.69279217720032 -1.63106727600098 -1.56493937969208 -1.50118446350098 -1.4543799161911 -1.4104198217392 -1.3660227060318 -1.32456851005554 -1.29405474662781 -1.28456819057465 -1.2878520488739 -1.2974419593811 -1.31045651435852 -1.32670783996582 -1.34676659107208 -1.36928057670593 -1.39351153373718 -1.4194860458374 -1.44843995571136 -1.48206913471222 -1.51834964752197 -1.55689835548401 -1.60059976577759 -1.65766477584839 -1.73842597007751 -1.82997035980225 -1.92038631439209 -2.00071620941162 -2.06254839897156 -2.10128355026245 -2.10383009910583 -2.05955243110657 -1.96568274497986 -1.90104305744171 -1.89276051521301 -1.92651104927063 -1.99857151508331 -3.4e+38 -3.4e+38 -3.4e+38 -3.4e+38 -3.4e+38 -3.4e+38 -3.4e+38 -3.4e+38 -3.4e+38 -3.4e+38 -3.4e+38 -3.4e+38 -1.84875619411469 -1.85076034069061 -1.86339688301086 -1.87921214103699 -1.88910269737244 -1.87597370147705 -1.83963739871979 -1.80102014541626 -1.78076756000519 -1.78645241260529 -1.82109224796295 -1.95765709877014 -2.21391248703003 -2.77454042434692 -4.24845409393311 -6.11073923110962 -8.08618259429932 -10.0609588623047 -11.9863204956055 -13.8359222412109 -15.5839414596558 -17.1675872802734 -18.4631595611572 -19.2549114227295 -19.3419075012207 -18.192569732666 -17.5070056915283 -17.1071186065674 -15.9843730926514 -16.8180866241455 -18.035327911377 -18.666410446167 -18.6091251373291 -17.9640140533447 -16.8628635406494 -15.4594755172729 -13.8941059112549 -12.2906332015991 -10.7352046966553 -9.28751373291016 -7.9837851524353 -6.84030818939209 -5.85827493667603 -5.02496719360352 -4.32347774505615 -3.74322557449341 -3.25603246688843 -2.85204076766968 -2.52206587791443 -2.27426505088806 -2.12263870239258 -2.01952934265137 -1.9393972158432 -1.86791777610779 -1.80805420875549 -1.78956079483032 -1.78663444519043 -1.80761289596558 -1.84526419639587 -1.90669083595276 -2.01314449310303 -2.17566514015198 -2.41168689727783 -2.72793030738831 -3.12962913513184 -3.63253831863403 -4.20646476745605 -4.82151222229004 -5.39904499053955 -5.87011909484863 -6.21385860443115 -6.44408893585205 -6.57270288467407 -6.85370922088623 -7.60278129577637 -8.97565937042236 -11.1226263046265 -14.7668237686157 -19.7479801177979 -26.9253559112549 -30.3348369598389 -30.163537979126 -29.7992534637451 -30.115478515625 -30.5863952636719 -30.0405368804932 -28.4688663482666 -25.5423202514648 -22.6468238830566 -19.3047733306885 -15.3555345535278 -10.9482488632202 -6.20126295089722 -3.4e+38 -3.4e+38 -3.4e+38 -3.4e+38 -3.4e+38 -3.4e+38 -3.4e+38 -3.4e+38 -3.4e+38 -3.4e+38 -3.4e+38 -3.4e+38 -3.4e+38 -3.4e+38 -3.31661415100098 -5.12047290802002 -7.56227493286133 -10.4971017837524 -13.9176054000854 -17.89479637146 -22.3624153137207 -27.0788917541504 -31.7534770965576 -36.1308746337891 -40.0029296875 -43.2066421508789 -45.6418342590332 -47.2814254760742 -48.1516304016113 -48.3362731933594 -47.9305725097656 -47.2078437805176 -46.3746795654297 -45.5302886962891 -44.7206115722656 -43.965690612793 -43.2839241027832 -42.6924819946289 -42.1852989196777 -41.7560501098633 -41.4043769836426 -41.1459732055664 -41.0188751220703
-1.99994301795959 -1.99995911121368 -1.99997508525848 -1.99999165534973 -2.00000786781311 -2.00002408027649 -2.00004148483276 -2.00005984306335 -2.000079870224 -2.00010061264038 -2.00012063980103 -2.00012826919556 -2.0001049041748 -3.4e+38 -3.4e+38 -3.4e+38 -3.4e+38 -3.4e+38 -3.4e+38 -3.4e+38 -3.4e+38 -3.4e+38 -3.4e+38 -3.4e+38 -3.4e+38 -3.4e+38 -3.4e+38 -3.4e+38 -3.4e+38 -3.4e+38 -3.4e+38 -3.4e+38 -3.4e+38 -3.4e+38 -3.4e+38 -3.4e+38 -3.4e+38 -3.4e+38 -3.4e+38 -3.4e+38 -3.4e+38 -3.4e+38 -3.4e+38 -3.4e+38 -3.4e+38 -3.4e+38 -3.4e+38 -3.4e+38 -3.4e+38 -3.4e+38 -1.86385357379913 -1.8202668428421 -1.8025369644165 -1.76726841926575 -1.72743785381317 -1.68927896022797 -1.64478838443756 -1.57205653190613 -1.49247312545776 -1.4165985584259 -1.34962737560272 -1.30041432380676 -1.28366160392761 -1.283656001091 -1.29065203666687 -1.30072319507599 -1.3139796257019 -1.33263301849365 -1.35384047031403 -1.37611997127533 -1.39979600906372 -1.42728805541992 -1.46280384063721 -1.49979507923126 -1.53614926338196 -1.5750527381897 -1.63045752048492 -1.72743153572083 -1.84053421020508 -1.95391130447388 -2.05764865875244 -2.13315415382385 -2.14763307571411 -2.12134075164795 -2.05462265014648 -1.9376631975174 -1.90104305744171 -1.89276051521301 -1.92651104927063 -1.99857151508331 -2.06324672698975 -2.08237552642822 -2.1532769203186 -3.4e+38 -3.4e+38 -3.4e+38 -3.4e+38 -3.4e+38 -3.4e+38 -3.4e+38 -3.4e+38 -3.4e+38 -3.4e+38 -3.4e+38 -3.4e+38 -3.4e+38 -3.4e+38 -3.4e+38 -3.4e+38 -3.4e+38 -3.4e+38 -3.4e+38 -3.4e+38 -3.4e+38 -3.4e+38 -4.11832714080811 -4.07806444168091 -6.37936639785767 -8.60462093353271 -10.6980171203613 -12.641975402832 -14.4120941162109 -15.9564523696899 -17.1622009277344 -17.8262348175049 -17.6574382781982 -16.6535778045654 -17.3696212768555 -17.7782363891602 -15.3326921463013 -12.2672595977783 -13.6085348129272 -15.2756967544556 -16.0547161102295 -15.9648914337158 -15.2678470611572 -14.2118902206421 -12.9854831695557 -11.6985425949097 -10.4139461517334 -9.18295478820801 -8.03996276855469 -7.00580883026123 -6.09006595611572 -5.29426670074463 -4.61240434646606 -4.03502559661865 -3.55069494247437 -3.14066648483276 -2.78822135925293 -2.49448990821838 -2.26682138442993 -2.11520838737488 -2.0077531337738 -1.92314219474792 -1.85446763038635 -1.81112551689148 -1.80671429634094 -1.82938575744629 -1.86117506027222 -1.91370677947998 -1.99480760097504 -2.11541533470154 -2.28773236274719 -2.53283643722534 -2.87494921684265 -3.34321403503418 -3.9619607925415 -4.74452066421509 -5.65038681030273 -6.6052360534668 -7.51889801025391 -8.33889579772949 -9.07777786254883 -9.79776287078857 -10.6739883422852 -11.9598503112793 -13.9156503677368 -17.2207717895508 -22.6666698455811 -27.0125274658203 -28.6261463165283 -29.1553039550781 -29.2830104827881 -29.8012828826904 -29.4818134307861 -28.2261714935303 -25.291296005249 -22.1958179473877 -18.467601776123 -14.510461807251 -11.1310749053955 -7.37266206741333 -3.88185334205627 -3.4e+38 -3.4e+38 -3.4e+38 -3.4e+38 -3.4e+38 -3.4e+38 -3.4e+38 -3.4e+38 -3.4e+38 -3.4e+38 -3.4e+38 -3.4e+38 -3.4e+38 -3.4e+38 -3.4e+38 -3.4e+38 -3.08676147460938 -5.45755672454834 -8.55275821685791 -12.2480030059814 -16.8296413421631 -22.2573146820068 -28.081449508667 -33.8346214294434 -39.1825141906738 -43.844669342041 -47.6210250854492 -50.3748741149902 -52.0442123413086 -52.7117576599121 -52.5337905883789 -51.4770126342773 -50.1499481201172 -48.850456237793 -47.656063079834 -46.5649185180664 -45.5707511901855 -44.6904067993164 -43.9710464477539 -43.3624496459961 -42.8412818908691 -42.4049224853516 -42.0551986694336 -41.7851867675781
-1.99991190433502 -1.9999281167984 -1.99994373321533 -1.99995970726013 -1.99997591972351 -1.99999225139618 -2.00000929832458 -2.00002646446228 -2.00004458427429 -2.00006151199341 -2.00007486343384 -2.00008130073547 -2.00005912780762 -3.4e+38 -3.4e+38 -3.4e+38 -3.4e+38 -3.4e+38 -3.4e+38 -3.4e+38 -3.4e+38 -3.4e+38 -3.4e+38 -3.4e+38 -3.4e+38 -3.4e+38 -3.4e+38 -3.4e+38 -3.4e+38 -3.4e+38 -3.4e+38 -3.4e+38 -3.4e+38 -3.4e+38 -3.4e+38 -3.4e+38 -3.4e+38 -3.4e+38 -3.4e+38 -3.4e+38 -3.4e+38 -3.4e+38 -3.4e+38 -3.4e+38 -3.4e+38 -3.4e+38 -3.4e+38 -3.4e+38 -3.4e+38 -3.4e+38 -3.4e+38 -1.90744030475616 -1.88153648376465 -1.84300804138184 -1.81905698776245 -1.8141964673996 -1.80485689640045 -1.69253623485565 -1.57093358039856 -1.46061825752258 -1.36180853843689 -1.28351533412933 -1.27103316783905 -1.27524447441101 -1.28222823143005 -1.2892450094223 -1.29803967475891 -1.3170839548111 -1.33801746368408 -1.35831892490387 -1.37772178649902 -1.40028929710388 -1.44289779663086 -1.48405492305756 -1.5163711309433 -1.53980851173401 -1.57504963874817 -1.70681476593018 -1.85358548164368 -1.99813365936279 -2.13935780525208 -2.25332021713257 -2.23171424865723 -2.18524980545044 -2.14330720901489 -2.11965703964233 -2.14196491241455 -2.06566905975342 -2.02283978462219 -2.02272939682007 -2.03765773773193 -2.08237552642822 -2.1532769203186 -2.18262815475464 -2.16114807128906 -3.4e+38 -3.4e+38 -3.4e+38 -3.4e+38 -3.4e+38 -3.4e+38 -3.4e+38 -3.4e+38 -3.4e+38 -3.4e+38 -3.4e+38 -2.07403063774109 -2.10154104232788 -2.10813522338867 -2.09007215499878 -3.4e+38 -3.4e+38 -3.4e+38 -3.4e+38 -3.4e+38 -4.37998342514038 -4.15859031677246 -6.81719589233398 -9.2736930847168 -11.4891166687012 -13.4739942550659 -15.2175693511963 -16.6737880706787 -17.7228698730469 -18.1465492248535 -17.5493831634521 -15.5106601715088 -16.240535736084 -19.6286354064941 -17.2868518829346 -7.63750457763672 -11.1722450256348 -13.6745367050171 -14.3721466064453 -13.9426126480103 -12.9381170272827 -11.7367000579834 -10.5793371200562 -9.49959850311279 -8.49017715454102 -7.54880428314209 -6.68438482284546 -5.90918636322021 -5.22219324111938 -4.62148094177246 -4.10214471817017 -3.65726518630981 -3.289630651474 -2.96599626541138 -2.6753077507019 -2.4139723777771 -2.19540047645569 -2.07079601287842 -1.98034691810608 -1.90260851383209 -1.83354210853577 -1.78430914878845 -1.80939412117004 -1.85440635681152 -1.90931403636932 -1.96764063835144 -2.04182958602905 -2.1631908416748 -2.33266735076904 -2.5728120803833 -2.916170835495 -3.41372466087341 -4.14289426803589 -5.15825414657593 -6.45234346389771 -7.87248945236206 -9.26776218414307 -10.5568552017212 -11.7623281478882 -12.9358587265015 -14.1672458648682 -15.6411581039429 -17.2915382385254 -19.6993732452393 -22.7159671783447 -25.7882518768311 -27.435079574585 -28.5797843933105 -29.7378845214844 -28.6407203674316 -25.2900066375732 -22.4446887969971 -19.1823043823242 -15.7254676818848 -11.624249458313 -6.79018926620483 -4.31998252868652 -3.4e+38 -3.4e+38 -3.4e+38 -3.4e+38 -3.4e+38 -3.4e+38 -3.4e+38 -3.4e+38 -3.4e+38 -3.4e+38 -3.4e+38 -3.4e+38 -3.4e+38 -3.4e+38 -3.4e+38 -3.4e+38 -3.4e+38 -3.4e+38 -3.4e+38 -3.26952028274536 -6.19747686386108 -9.78718090057373 -14.9771976470947 -21.7786560058594 -29.1516513824463 -36.3113861083984 -42.8951416015625 -48.5429878234863 -53.0122108459473 -56.1137962341309 -57.7022323608398 -57.9778785705566 -57.3898658752441 -55.2022247314453 -53.0356216430664 -51.2142562866211 -49.6763801574707 -48.3192481994629 -47.0776672363281 -45.9643363952637 -45.1541976928711 -44.462158203125 -43.8503646850586 -43.3252639770508 -42.8839874267578 -42.4654388427734
-2.00002956390381 -2.00004529953003 -2.00006079673767 -1.99992752075195 -1.99994361400604 -1.99995970726013 -1.99997615814209 -1.99999260902405 -2.00000953674316 -2.00002527236938 -2.00003886222839 -2.00005006790161 -2.00005912780762 -3.4e+38 -3.4e+38 -3.4e+38 -3.4e+38 -3.4e+38 -3.4e+38 -3.4e+38 -3.4e+38 -3.4e+38 -3.4e+38 -3.4e+38 -3.4e+38 -3.4e+38 -3.4e+38 -3.4e+38 -3.4e+38 -3.4e+38 -3.4e+38 -3.4e+38 -3.4e+38 -3.4e+38 -3.4e+38 -3.4e+38 -3.4e+38 -3.4e+38 -3.4e+38 -3.4e+38 -3.4e+38 -3.4e+38 -3.4e+38 -3.4e+38 -3.4e+38 -3.4e+38 -3.4e+38 -3.4e+38 -3.4e+38 -3.4e+38 -3.4e+38 -3.4e+38 -1.89841818809509 -1.89289939403534 -1.88216662406921 -1.91693258285522 -1.98505055904388 -1.79708790779114 -1.63374853134155 -1.49607026576996 -1.36699497699738 -1.2423654794693 -1.25627136230469 -1.26922464370728 -1.27609801292419 -1.27906095981598 -1.27984261512756 -1.30256569385529 -1.32425308227539 -1.34284162521362 -1.35718846321106 -1.36854338645935 -1.42884850502014 -1.47992146015167 -1.51241517066956 -1.51641058921814 -1.4955438375473 -1.69410359859467 -1.87446880340576 -2.04218339920044 -2.22288250923157 -2.41976928710938 -2.31630110740662 -2.24347949028015 -2.22271633148193 -2.27432751655579 -2.41364145278931 -2.21158361434937 -2.08938145637512 -2.03416061401367 -2.00363492965698 -1.98250722885132 -2.07758283615112 -2.13424873352051 -2.16114807128906 -2.13189458847046 -3.4e+38 -3.4e+38 -3.4e+38 -2.06277060508728 -1.96923458576202 -1.91016387939453 -1.84701311588287 -1.80882656574249 -1.8425966501236 -1.9427969455719 -2.07403063774109 -2.10154104232788 -2.10813522338867 -2.09007215499878 -2.03215575218201 -2.28490972518921 -2.166170835495 -2.26951479911804 -2.52003121376038 -3.15271949768066 -4.60137701034546 -7.58958578109741 -10.2139720916748 -12.5187282562256 -14.5517272949219 -16.318696975708 -17.8063163757324 -18.9381942749023 -19.6681728363037 -20.1228446960449 -20.7771644592285 -16.6788845062256 -13.9657974243164 -13.4819355010986 -9.35566520690918 -13.3262119293213 -14.5220184326172 -13.9351825714111 -12.5230951309204 -10.8253812789917 -9.24866390228271 -8.117018699646 -7.24777221679688 -6.50765371322632 -5.84863185882568 -5.25565338134766 -4.7338604927063 -4.27318000793457 -3.87184286117554 -3.52390050888062 -3.22034621238708 -2.98826789855957 -2.760986328125 -2.53347110748291 -2.30486011505127 -2.08044052124023 -2.01092958450317 -1.9458589553833 -1.87868118286133 -1.80638372898102 -1.73253750801086 -1.80517268180847 -1.87813973426819 -1.94518613815308 -2.00662899017334 -2.06258153915405 -2.16821050643921 -2.30206918716431 -2.50506973266602 -2.80162334442139 -3.26588249206543 -4.04926872253418 -5.31234836578369 -7.12560081481934 -9.16190624237061 -11.1233367919922 -12.8411960601807 -14.42125415802 -15.8865995407104 -17.1587619781494 -18.5039081573486 -19.1836490631104 -19.6885223388672 -21.4315853118896 -22.5590877532959 -24.7612400054932 -26.5962066650391 -23.9715099334717 -21.392749786377 -18.5230293273926 -15.9171895980835 -12.9065103530884 -9.93959617614746 -6.63823509216309 -3.41243529319763 -3.4e+38 -3.4e+38 -3.4e+38 -3.4e+38 -3.4e+38 -3.4e+38 -3.4e+38 -3.4e+38 -3.4e+38 -3.4e+38 -3.4e+38 -3.4e+38 -3.4e+38 -3.4e+38 -3.4e+38 -3.4e+38 -3.4e+38 -3.4e+38 -3.4e+38 -3.4e+38 -3.4e+38 -3.72858238220215 -6.13101196289062 -11.8036985397339 -20.8356838226318 -30.4204235076904 -39.3184928894043 -47.4512557983398 -54.2744445800781 -59.5392227172852 -62.9862022399902 -64.1672744750977 -63.4825592041016 -62.5560493469238 -58.5142593383789 -55.478214263916 -53.2709732055664 -51.5118751525879 -49.965503692627 -48.5041046142578 -47.0955047607422 -46.2709999084473 -45.4961166381836 -44.7748832702637 -44.1487045288086 -43.6361083984375 -43.0371704101562
-1.99999821186066 -2.00001382827759 -2.00002908706665 -1.99989533424377 -1.99991106987 -1.99992668628693 -1.99994277954102 -1.99995923042297 -1.99997532367706 -1.99999058246613 -2.00000524520874 -2.00001835823059 -2.0000319480896 -2.00004386901855 -3.4e+38 -3.4e+38 -3.4e+38 -3.4e+38 -3.4e+38 -3.4e+38 -3.4e+38 -3.4e+38 -3.4e+38 -3.4e+38 -3.4e+38 -3.4e+38 -3.4e+38 -3.4e+38 -3.4e+38 -3.4e+38 -3.4e+38 -3.4e+38 -3.4e+38 -3.4e+38 -3.4e+38 -3.4e+38 -3.4e+38 -3.4e+38 -3.4e+38 -3.4e+38 -3.4e+38 -3.4e+38 -3.4e+38 -3.4e+38 -3.4e+38 -3.4e+38 -3.4e+38 -3.4e+38 -3.4e+38 -3.4e+38 -3.4e+38 -3.4e+38 -3.4e+38 -1.90393710136414 -1.88537108898163 -1.90392220020294 -1.90851902961731 -1.79416561126709 -1.65850079059601 -1.52779293060303 -1.40735197067261 -1.31020951271057 -1.28401064872742 -1.27846622467041 -1.27768862247467 -1.27829790115356 -1.2819926738739 -1.29721474647522 -1.31560277938843 -1.33451533317566 -1.35508346557617 -1.38382458686829 -1.4390195608139 -1.49831819534302 -1.5497088432312 -1.58984279632568 -1.6360901594162 -1.77186059951782 -1.91853284835815 -2.06111216545105 -2.19874334335327 -2.30740690231323 -2.27928280830383 -2.23497462272644 -2.2136857509613 -2.22946763038635 -2.25999426841736 -2.16183090209961 -2.07598543167114 -2.02467441558838 -1.99844574928284 -1.99630284309387 -2.0500180721283 -2.10173988342285 -2.13986825942993 -2.16071224212646 -2.22392416000366 -2.22573256492615 -2.19166612625122 -2.06277060508728 -1.96923458576202 -1.91016387939453 -1.84701311588287 -1.80882656574249 -1.8425966501236 -1.9427969455719 -2.29006671905518 -2.48527526855469 -2.59646105766296 -2.63451743125916 -2.55581665039062 -2.28490972518921 -2.166170835495 -2.26951479911804 -2.52003121376038 -3.15271949768066 -6.04483938217163 -8.92540168762207 -11.5142307281494 -13.8311538696289 -15.9042301177979 -17.7340965270996 -19.3013153076172 -20.5463485717773 -21.3289070129395 -21.1616764068604 -18.6748275756836 -16.3499088287354 -15.005464553833 -22.8205413818359 -27.3109531402588 -21.8817043304443 -17.7093067169189 -14.4193353652954 -11.4294176101685 -8.66658115386963 -6.47413444519043 -5.49545001983643 -4.93656349182129 -4.50244331359863 -4.13273525238037 -3.81554985046387 -3.53605985641479 -3.29596281051636 -3.09469413757324 -2.93246030807495 -2.81647634506226 -2.69918584823608 -2.55817055702209 -2.40004301071167 -2.23430466651917 -2.08017015457153 -1.99380934238434 -1.92767286300659 -1.87136614322662 -1.82506966590881 -1.79956066608429 -1.84497427940369 -1.913489818573 -1.99035954475403 -2.05687522888184 -2.10783243179321 -2.1571478843689 -2.21333527565002 -2.34917402267456 -2.53315782546997 -2.84884595870972 -3.54642152786255 -5.00257539749146 -7.60925674438477 -10.5122947692871 -13.1766538619995 -15.1710062026978 -16.9459400177002 -18.398509979248 -18.995153427124 -18.5032558441162 -18.918004989624 -19.0613918304443 -19.4202632904053 -18.8396148681641 -18.6844749450684 -18.022403717041 -15.2122135162354 -12.8788013458252 -10.9958419799805 -9.15312671661377 -6.68427085876465 -4.83518028259277 -2.70265769958496 -3.4e+38 -3.4e+38 -3.4e+38 -3.4e+38 -3.4e+38 -3.4e+38 -3.4e+38 -3.4e+38 -3.4e+38 -3.4e+38 -3.4e+38 -3.4e+38 -3.4e+38 -3.4e+38 -3.4e+38 -3.4e+38 -3.4e+38 -3.4e+38 -3.4e+38 -3.4e+38 -3.4e+38 -3.4e+38 -3.4e+38 -3.4e+38 -6.74157667160034 -19.8018836975098 -32.2179412841797 -42.9067306518555 -52.8746147155762 -60.9199485778809 -66.8399047851562 -70.2459564208984 -70.0466232299805 -66.7918472290039 -63.0607681274414 -59.568416595459 -56.8556938171387 -54.8401908874512 -53.1272735595703 -51.5479354858398 -50.0312538146973 -48.6152076721191 -47.4973983764648 -46.5048904418945 -45.6028747558594 -44.7992401123047 -44.0922164916992 -43.4206161499023
-3.4e+38 -1.99998235702515 -1.99999737739563 -2.00001215934753 -2.00002765655518 -1.99989366531372 -1.99990928173065 -1.9999258518219 -1.9999418258667 -1.99995720386505 -1.99997198581696 -1.99998617172241 -1.99999988079071 -2.00001358985901 -3.4e+38 -3.4e+38 -3.4e+38 -3.4e+38 -3.4e+38 -3.4e+38 -3.4e+38 -3.4e+38 -3.4e+38 -3.4e+38 -3.4e+38 -3.4e+38 -3.4e+38 -3.4e+38 -3.4e+38 -3.4e+38 -3.4e+38 -3.4e+38 -3.4e+38 -3.4e+38 -3.4e+38 -3.4e+38 -3.4e+38 -3.4e+38 -3.4e+38 -3.4e+38 -3.4e+38 -3.4e+38 -3.4e+38 -3.4e+38 -3.4e+38 -3.4e+38 -3.4e+38 -3.4e+38 -3.4e+38 -3.4e+38 -3.4e+38 -1.99283397197723 -1.96954250335693 -1.93711996078491 -1.86455345153809 -1.884317278862 -1.86950933933258 -1.78703594207764 -1.67293953895569 -1.55143809318542 -1.43732333183289 -1.34805798530579 -1.30549228191376 -1.28808879852295 -1.28080177307129 -1.27780485153198 -1.28044331073761 -1.29220056533813 -1.30843710899353 -1.32698881626129 -1.35054075717926 -1.3876336812973 -1.45082068443298 -1.52618086338043 -1.60369622707367 -1.67915642261505 -1.7589282989502 -1.86191177368164 -1.97184383869171 -2.07956171035767 -2.17563223838806 -2.23784232139587 -2.23134875297546 -2.1956684589386 -2.15995669364929 -2.13463926315308 -2.11322021484375 -2.06491613388062 -2.02092838287354 -1.99282622337341 -1.98133504390717 -1.99116110801697 -2.03196144104004 -2.08199715614319 -2.13047170639038 -2.17648816108704 -2.22392416000366 -2.22573256492615 -2.19166612625122 -2.16449332237244 -2.12615346908569 -2.10884237289429 -2.11926198005676 -2.16504263877869 -2.2659330368042 -2.43561172485352 -2.71848917007446 -2.97259902954102 -3.18231773376465 -3.34327983856201 -3.44507575035095 -3.50467300415039 -3.69863748550415 -4.11652612686157 -4.80906915664673 -5.99337387084961 -8.22121620178223 -10.6961822509766 -13.1156463623047 -15.3949403762817 -17.5037117004395 -19.4187927246094 -21.1250171661377 -22.6456890106201 -24.1493186950684 -26.1881790161133 -29.9993743896484 -35.1573600769043 -30.5713386535645 -32.1644096374512 -34.6103515625 -26.0938091278076 -19.5448303222656 -14.5550489425659 -10.1912269592285 -6.24455499649048 -3.29777097702026 -2.91707706451416 -2.81392478942871 -2.69610214233398 -2.59279489517212 -2.5263237953186 -2.45881319046021 -2.41150760650635 -2.38498640060425 -2.38082408905029 -2.45332098007202 -2.44454526901245 -2.3755943775177 -2.27693843841553 -2.1649763584137 -2.05652451515198 -1.97046947479248 -1.90560030937195 -1.86151039600372 -1.83916997909546 -1.84049773216248 -1.87550067901611 -1.94060206413269 -2.02970743179321 -2.09911561012268 -2.137371301651 -2.12843036651611 -3.4e+38 -2.16005301475525 -2.18939852714539 -2.22861242294312 -2.64032769203186 -4.05879306793213 -7.93816900253296 -12.045991897583 -15.6578769683838 -17.387752532959 -18.7941913604736 -18.801233291626 -18.7647762298584 -18.8107872009277 -18.9091911315918 -19.1663341522217 -16.5295791625977 -14.1481475830078 -12.3152847290039 -10.1115283966064 -6.40646553039551 -4.79261779785156 -4.21642303466797 -3.53778457641602 -3.4e+38 -3.4e+38 -3.4e+38 -3.4e+38 -3.4e+38 -3.4e+38 -3.4e+38 -3.4e+38 -3.4e+38 -3.4e+38 -3.4e+38 -3.4e+38 -3.4e+38 -3.4e+38 -3.4e+38 -3.4e+38 -3.4e+38 -3.4e+38 -3.4e+38 -3.4e+38 -3.4e+38 -3.4e+38 -3.4e+38 -3.4e+38 -3.4e+38 -3.4e+38 -10.1437997817993 -18.9185638427734 -21.231653213501 -35.7258262634277 -46.5784873962402 -58.0566291809082 -66.8098831176758 -72.1040115356445 -70.2611389160156 -66.6183471679688 -64.3421859741211 -61.5393562316895 -59.4883155822754 -57.5658760070801 -56.1108856201172 -54.6047096252441 -53.069995880127 -51.5005645751953 -49.9919471740723 -48.6482925415039 -47.4363899230957 -46.3334426879883 -45.3372344970703 -44.4530754089355 -43.6773948669434
-3.4e+38 -3.4e+38 -3.4e+38 -3.4e+38 -3.4e+38 -3.4e+38 -1.99987745285034 -1.99989354610443 -1.99990928173065 -1.99992501735687 -1.99993979930878 -1.99995398521423 -1.99996721744537 -3.4e+38 -3.4e+38 -3.4e+38 -3.4e+38 -3.4e+38 -3.4e+38 -3.4e+38 -3.4e+38 -1.99992549419403 -1.99994361400604 -3.4e+38 -3.4e+38 -3.4e+38 -3.4e+38 -3.4e+38 -3.4e+38 -3.4e+38 -3.4e+38 -3.4e+38 -3.4e+38 -3.4e+38 -3.4e+38 -3.4e+38 -3.4e+38 -3.4e+38 -3.4e+38 -3.4e+38 -3.4e+38 -3.4e+38 -3.4e+38 -3.4e+38 -3.4e+38 -3.4e+38 -3.4e+38 -3.4e+38 -3.4e+38 -3.4e+38 -1.99587595462799 -1.99283397197723 -1.96954250335693 -1.93711996078491 -1.91467463970184 -1.91135251522064 -1.88463187217712 -1.80418395996094 -1.69274318218231 -1.56914031505585 -1.4477459192276 -1.35046899318695 -1.30859518051147 -1.29213953018188 -1.28267741203308 -1.27487671375275 -1.27282428741455 -1.28560662269592 -1.30245137214661 -1.31825470924377 -1.33654689788818 -1.37227118015289 -1.45304465293884 -1.5543360710144 -1.66099333763123 -1.7688455581665 -1.87025594711304 -1.9507532119751 -2.0283420085907 -2.10646271705627 -2.17648458480835 -2.21740293502808 -2.2014045715332 -2.1533145904541 -2.09124660491943 -2.02733683586121 -1.97436857223511 -1.95598781108856 -1.94900369644165 -1.94573318958282 -1.94833636283875 -1.96493673324585 -2.00858902931213 -2.06457662582397 -2.12205696105957 -2.17708253860474 -2.22781610488892 -2.2614004611969 -2.27742862701416 -2.29283905029297 -2.3097357749939 -2.34757709503174 -2.42940759658813 -2.54947519302368 -2.71238780021667 -2.92589473724365 -3.20352745056152 -3.51451349258423 -3.82605361938477 -4.12933826446533 -4.43398284912109 -4.78379821777344 -5.28394985198975 -6.00128078460693 -7.00348901748657 -8.41069316864014 -10.3567590713501 -12.576135635376 -14.8699035644531 -17.1319313049316 -19.2975597381592 -21.3135795593262 -23.133960723877 -24.7525768280029 -26.3411312103271 -28.6551895141602 -33.7974624633789 -42.1179428100586 -35.4461975097656 -28.2541751861572 -28.3072910308838 -24.1478080749512 -19.1177310943604 -14.0123023986816 -8.8099365234375 -4.00225877761841 -3.4e+38 -3.4e+38 -3.4e+38 -3.4e+38 -3.4e+38 -3.4e+38 -3.4e+38 -3.4e+38 -3.4e+38 -3.4e+38 -2.2418270111084 -2.26214504241943 -2.22715377807617 -2.16983103752136 -2.09630870819092 -2.0170578956604 -1.93066930770874 -1.86626601219177 -1.83424997329712 -1.83529949188232 -1.85747647285461 -1.88041841983795 -1.931964635849 -3.4e+38 -3.4e+38 -3.4e+38 -3.4e+38 -3.4e+38 -3.4e+38 -3.4e+38 -3.4e+38 -2.78904581069946 -3.67294836044312 -8.55430030822754 -13.7990341186523 -18.755033493042 -18.9136409759521 -18.613208770752 -18.5198421478271 -18.3895931243896 -18.2121410369873 -17.1278438568115 -15.2594909667969 -12.1132030487061 -8.82024765014648 -6.51851654052734 -4.68485832214355 -3.4e+38 -3.4e+38 -3.4e+38 -3.4e+38 -3.4e+38 -3.4e+38 -3.4e+38 -3.4e+38 -3.4e+38 -3.4e+38 -3.4e+38 -3.4e+38 -3.4e+38 -3.4e+38 -3.4e+38 -3.4e+38 -3.4e+38 -3.4e+38 -3.4e+38 -3.4e+38 -3.4e+38 -5.50796031951904 -3.4e+38 -3.4e+38 -3.4e+38 -3.4e+38 -3.4e+38 -3.4e+38 -9.619553565979 -15.8094177246094 -10.1437997817993 -18.9185638427734 -32.1751899719238 -41.7367172241211 -47.5318412780762 -54.7805442810059 -63.352409362793 -67.4311370849609 -66.464241027832 -64.5290451049805 -62.910816192627 -61.1095008850098 -59.8019180297852 -58.6059036254883 -57.4865951538086 -56.0864372253418 -54.6013832092285 -52.9051475524902 -51.2247009277344 -49.6783638000488 -48.2638893127441 -46.9581527709961 -45.7603492736816 -44.6966819763184 -43.804801940918
-3.4e+38 -3.4e+38 -3.4e+38 -3.4e+38 -3.4e+38 -3.4e+38 -3.4e+38 -2.00001120567322 -2.00002694129944 -1.99989306926727 -1.99990797042847 -1.99992203712463 -1.99993622303009 -1.99992084503174 -1.99993574619293 -3.4e+38 -3.4e+38 -3.4e+38 -3.4e+38 -2.00001192092896 -2.00002789497375 -1.99992549419403 -1.99994361400604 -2.00010514259338 -3.4e+38 -3.4e+38 -3.4e+38 -3.4e+38 -3.4e+38 -3.4e+38 -3.4e+38 -3.4e+38 -3.4e+38 -3.4e+38 -3.4e+38 -3.4e+38 -3.4e+38 -3.4e+38 -3.4e+38 -3.4e+38 -3.4e+38 -3.4e+38 -3.4e+38 -3.4e+38 -3.4e+38 -3.4e+38 -3.4e+38 -3.4e+38 -3.4e+38 -2.00175142288208 -2.00333094596863 -1.99891793727875 -1.98790276050568 -1.97269260883331 -1.96306157112122 -1.96113204956055 -1.9421603679657 -1.84574341773987 -1.72232604026794 -1.58606612682343 -1.44218099117279 -1.3146995306015 -1.29619002342224 -1.2952287197113 -1.28772830963135 -1.27193212509155 -1.25774204730988 -1.27978503704071 -1.30189383029938 -1.31335628032684 -1.31487476825714 -1.32877159118652 -1.44375610351562 -1.5791220664978 -1.71804869174957 -1.86130738258362 -1.99510097503662 -2.04063081741333 -2.08244204521179 -2.13691854476929 -2.19653701782227 -2.23697853088379 -2.19293141365051 -2.11702823638916 -2.02247142791748 -1.91125738620758 -1.809978723526 -1.83829689025879 -1.87448835372925 -1.89534997940063 -1.90640473365784 -1.92242836952209 -1.98023951053619 -2.04928779602051 -2.11773014068604 -2.18094730377197 -2.23980617523193 -2.30787897109985 -2.36892461776733 -2.42600774765015 -2.48413372039795 -2.56233930587769 -2.71745729446411 -2.90711760520935 -3.12430477142334 -3.37402439117432 -3.67145490646362 -4.06305122375488 -4.48299360275269 -4.92134284973145 -5.39630556106567 -5.95669937133789 -6.70900344848633 -7.66635036468506 -8.8763313293457 -10.3998193740845 -12.2691679000854 -14.3981151580811 -16.6605987548828 -18.9664669036865 -21.2415351867676 -23.4052143096924 -25.3471202850342 -26.8894557952881 -27.7351131439209 -27.3900241851807 -25.8033809661865 -33.9844665527344 -27.5760822296143 -22.4525470733643 -23.5674057006836 -22.0906066894531 -18.5507926940918 -13.6741609573364 -7.73954105377197 -3.4e+38 -3.4e+38 -3.4e+38 -3.4e+38 -3.4e+38 -3.4e+38 -3.4e+38 -3.4e+38 -3.4e+38 -3.4e+38 -3.4e+38 -3.4e+38 -3.4e+38 -3.4e+38 -2.08093333244324 -2.03517603874207 -1.98431694507599 -1.87478744983673 -1.80336546897888 -1.78319919109344 -1.81968462467194 -3.4e+38 -3.4e+38 -3.4e+38 -3.4e+38 -3.4e+38 -3.4e+38 -3.4e+38 -3.4e+38 -3.4e+38 -2.36388826370239 -2.62291431427002 -2.78904581069946 -4.67176198959351 -9.51138687133789 -14.6979131698608 -19.3191528320312 -18.8302192687988 -18.2422618865967 -17.5571002960205 -16.5449142456055 -15.5685520172119 -13.8547115325928 -11.2919273376465 -7.74496936798096 -3.49053549766541 -3.4e+38 -3.4e+38 -3.4e+38 -3.4e+38 -3.4e+38 -3.4e+38 -3.4e+38 -3.4e+38 -3.4e+38 -3.4e+38 -3.4e+38 -3.4e+38 -3.4e+38 -3.4e+38 -3.4e+38 -3.4e+38 -3.4e+38 -3.4e+38 -3.4e+38 -3.4e+38 -3.4e+38 -3.4e+38 -8.95111465454102 -5.50796031951904 -6.28905391693115 -11.5749607086182 -15.3847808837891 -20.8078136444092 -19.4628772735596 -18.5600776672363 -9.619553565979 -15.8094177246094 -29.9144992828369 -36.3671035766602 -39.0361480712891 -40.9986267089844 -45.3388900756836 -51.0457229614258 -59.3232421875 -63.830436706543 -64.3591613769531 -62.9520530700684 -61.6707191467285 -60.520679473877 -59.6306381225586 -59.2157669067383 -58.7514533996582 -57.4680938720703 -56.1928405761719 -54.2315444946289 -52.304801940918 -50.5685729980469 -48.9750595092773 -47.4671325683594 -46.043399810791 -44.7650299072266 -43.7595329284668
-3.4e+38 -3.4e+38 -3.4e+38 -3.4e+38 -3.4e+38 -3.4e+38 -3.4e+38 -1.99997973442078 -1.999995470047 -2.00001072883606 -2.00002551078796 -2.00004053115845 -2.00005459785461 -1.99992084503174 -1.99993574619293 -1.99995028972626 -1.99993515014648 -1.99995052814484 -1.99996662139893 -2.00001192092896 -2.00002789497375 -2.00004863739014 -1.99991631507874 -2.00007748603821 -3.4e+38 -3.4e+38 -3.4e+38 -3.4e+38 -3.4e+38 -2.00028872489929 -2.00031471252441 -3.4e+38 -3.4e+38 -3.4e+38 -3.4e+38 -3.4e+38 -3.4e+38 -3.4e+38 -3.4e+38 -3.4e+38 -3.4e+38 -1.99959373474121 -2.00011849403381 -2.00050783157349 -2.00072431564331 -2.00109553337097 -2.00111675262451 -2.00254034996033 -2.00313138961792 -2.00175142288208 -2.00333094596863 -2.00463604927063 -2.00243234634399 -1.99862003326416 -1.99925851821899 -2.01175141334534 -2.02998614311218 -1.89766275882721 -1.76053476333618 -1.61517131328583 -1.44519054889679 -1.25071370601654 -1.29538416862488 -1.3162544965744 -1.30859434604645 -1.28012037277222 -1.2385550737381 -1.28514361381531 -1.31875276565552 -1.32904958724976 -1.30817627906799 -1.26209783554077 -1.44233107566833 -1.60875606536865 -1.76799464225769 -1.94285786151886 -2.13831830024719 -2.11460280418396 -2.11783051490784 -2.15365886688232 -2.21392726898193 -2.28371787071228 -2.19092202186584 -2.08863687515259 -1.96945905685425 -1.81196403503418 -1.61596608161926 -1.73859262466431 -1.82059061527252 -1.85887396335602 -1.87076354026794 -1.87115216255188 -1.95753216743469 -2.04303026199341 -2.12372422218323 -2.19626975059509 -2.25979900360107 -2.3694224357605 -2.47008800506592 -2.56399297714233 -2.65183687210083 -2.74227857589722 -2.98471188545227 -3.2396354675293 -3.50699687004089 -3.78938555717468 -4.09456157684326 -4.59799957275391 -5.12560749053955 -5.68197965621948 -6.28913831710815 -6.98457622528076 -7.95034980773926 -9.09293174743652 -10.4521532058716 -12.0657043457031 -13.9448766708374 -16.0941581726074 -18.409782409668 -20.8319816589355 -23.298002243042 -25.7232799530029 -27.9753189086914 -29.8052349090576 -30.8127098083496 -30.5095176696777 -29.1590042114258 -30.6340618133545 -26.5411701202393 -22.4289131164551 -23.0624732971191 -22.2750091552734 -19.3853073120117 -14.7065572738647 -8.54825496673584 -6.17882251739502 -3.4e+38 -3.4e+38 -3.4e+38 -3.4e+38 -3.4e+38 -3.4e+38 -3.4e+38 -3.4e+38 -3.4e+38 -3.4e+38 -3.4e+38 -3.4e+38 -3.4e+38 -3.4e+38 -3.4e+38 -3.4e+38 -3.4e+38 -3.4e+38 -3.4e+38 -3.4e+38 -3.4e+38 -3.4e+38 -3.4e+38 -3.4e+38 -3.4e+38 -3.4e+38 -3.4e+38 -2.34399127960205 -2.66166043281555 -2.36388826370239 -2.62291431427002 -4.27809762954712 -6.74292898178101 -10.6408004760742 -15.0610666275024 -19.029972076416 -17.9357452392578 -17.4083862304688 -16.4883289337158 -14.92236328125 -13.2252407073975 -11.0353231430054 -8.22963714599609 -5.01966667175293 -3.4e+38 -3.4e+38 -3.4e+38 -3.4e+38 -3.4e+38 -3.4e+38 -3.4e+38 -3.4e+38 -3.4e+38 -3.4e+38 -3.4e+38 -3.4e+38 -3.4e+38 -3.4e+38 -3.4e+38 -3.4e+38 -3.4e+38 -3.4e+38 -3.4e+38 -3.4e+38 -3.4e+38 -6.02436590194702 -20.0787258148193 -8.95111465454102 -17.7352123260498 -19.2439308166504 -11.5749607086182 -15.3847808837891 -20.8078136444092 -19.4628772735596 -18.5600776672363 -37.8218688964844 -39.9236755371094 -43.298770904541 -45.0442314147949 -44.9285354614258 -45.9225311279297 -47.8996086120605 -51.3863868713379 -57.6250076293945 -60.8715896606445 -61.0860137939453 -60.2369766235352 -60.1457443237305 -59.7192306518555 -59.2559242248535 -58.872386932373 -58.5848655700684 -58.1244812011719 -57.6939353942871 -55.2585372924805 -53.0982818603516 -51.2623291015625 -49.5506782531738 -47.8440704345703 -46.1422996520996 -44.5424957275391 -43.4436492919922
-3.4e+38 -3.4e+38 -3.4e+38 -3.4e+38 -3.4e+38 -3.4e+38 -3.4e+38 -3.4e+38 -2.00011324882507 -1.99997925758362 -1.99999463558197 -2.00001001358032 -2.00002479553223 -1.99989056587219 -1.99990582466125 -1.99992072582245 -1.99993515014648 -1.99995052814484 -1.99996662139893 -1.99998390674591 -2.0000011920929 -2.00001859664917 -1.99988567829132 -1.99989831447601 -2.00005650520325 -2.0000433921814 -2.00005960464478 -2.00007748603821 -2.00009799003601 -2.00028872489929 -2.00031471252441 -2.00032424926758 -3.4e+38 -3.4e+38 -3.4e+38 -3.4e+38 -3.4e+38 -3.4e+38 -3.4e+38 -3.4e+38 -1.99993979930878 -1.99959373474121 -2.00011849403381 -2.00050783157349 -2.00072431564331 -2.00109553337097 -2.00111675262451 -2.00254034996033 -2.00313138961792 -2.00490117073059 -2.00687694549561 -2.0094838142395 -2.0107274055481 -2.01093602180481 -2.01095008850098 -2.00994729995728 -1.9937037229538 -1.9073748588562 -1.79930830001831 -1.67955458164215 -1.54897844791412 -1.42641806602478 -1.40062260627747 -1.38525986671448 -1.36166930198669 -1.33263254165649 -1.31204438209534 -1.33590590953827 -1.36793208122253 -1.39148306846619 -1.40280723571777 -1.42094933986664 -1.5336742401123 -1.66279006004333 -1.79626154899597 -1.93511283397675 -2.0601806640625 -2.09084892272949 -2.10801005363464 -2.13470029830933 -2.16893267631531 -2.19140887260437 -2.1385555267334 -2.05936932563782 -1.96237254142761 -1.84904062747955 -1.7480046749115 -1.77995932102203 -1.82480788230896 -1.85500526428223 -1.87522411346436 -1.9012063741684 -1.9716272354126 -2.05644655227661 -2.14698553085327 -2.23996782302856 -2.33734178543091 -2.45925569534302 -2.58625936508179 -2.71800994873047 -2.85935163497925 -3.02786254882812 -3.27893543243408 -3.56516623497009 -3.87991666793823 -4.22883176803589 -4.63224363327026 -5.15537166595459 -5.74520969390869 -6.39797973632812 -7.13353443145752 -7.99215364456177 -9.05542182922363 -10.3106412887573 -11.7779388427734 -13.4807720184326 -15.4327487945557 -17.6372756958008 -20.0549259185791 -22.6537265777588 -25.3974342346191 -28.2291011810303 -31.0400466918945 -33.6050453186035 -35.4953193664551 -35.9723892211914 -34.1427383422852 -31.8448677062988 -28.0469093322754 -25.6180515289307 -25.9317817687988 -25.0803337097168 -22.1773586273193 -17.5909290313721 -11.9182395935059 -6.17882251739502 -3.02412128448486 -3.4e+38 -3.4e+38 -3.4e+38 -3.4e+38 -3.4e+38 -3.4e+38 -3.4e+38 -3.4e+38 -3.4e+38 -3.4e+38 -3.4e+38 -3.4e+38 -3.4e+38 -3.4e+38 -3.4e+38 -3.4e+38 -3.4e+38 -3.4e+38 -3.4e+38 -3.4e+38 -3.4e+38 -3.4e+38 -3.4e+38 -3.4e+38 -3.4e+38 -2.25740337371826 -2.34399127960205 -2.66166043281555 -3.20833921432495 -4.0336799621582 -5.695725440979 -8.07833862304688 -11.248950958252 -14.7489547729492 -17.6412086486816 -17.2431526184082 -16.7008571624756 -14.8544635772705 -13.320460319519 -11.3997821807861 -8.85146045684814 -5.81665849685669 -3.3743724822998 -3.4e+38 -3.4e+38 -3.4e+38 -3.4e+38 -3.4e+38 -3.4e+38 -3.4e+38 -3.4e+38 -3.4e+38 -3.4e+38 -3.4e+38 -3.4e+38 -3.4e+38 -3.4e+38 -3.4e+38 -3.4e+38 -3.4e+38 -3.4e+38 -3.4e+38 -3.94613027572632 -8.69419956207275 -6.02436590194702 -20.0787258148193 -21.0513935089111 -24.8964443206787 -34.0680732727051 -38.177303314209 -38.1281509399414 -38.4705657958984 -36.5374908447266 -38.1384162902832 -42.8999824523926 -43.52734375 -44.5109519958496 -45.22216796875 -44.783275604248 -44.6947937011719 -45.6370735168457 -48.4304084777832 -49.1052322387695 -53.3404884338379 -54.4844017028809 -54.8675956726074 -54.4695854187012 -54.2527923583984 -55.6291656494141 -57.0010795593262 -57.2848091125488 -56.9393196105957 -56.8948364257812 -55.0907249450684 -53.217903137207 -51.5863189697266 -49.865306854248 -47.97021484375 -45.9348640441895 -43.7464637756348 -42.6295623779297
-3.4e+38 -3.4e+38 -3.4e+38 -3.4e+38 -2.00014114379883 -2.00000667572021 -2.00002193450928 -2.00003695487976 -2.00005221366882 -2.00006699562073 -2.00011301040649 -2.00012850761414 -1.99999439716339 -1.99986064434052 -1.99987554550171 -1.99974179267883 -1.99990570545197 -1.99992191791534 -1.99993789196014 -1.99995517730713 -1.99997234344482 -1.99998927116394 -1.99985659122467 -1.99987149238586 -2.00003242492676 -2.0000433921814 -2.00005960464478 -2.00007748603821 -2.00009799003601 -2.00013566017151 -2.00016498565674 -2.00032472610474 -2.00047373771667 -2.00033688545227 -3.4e+38 -3.4e+38 -3.4e+38 -3.4e+38 -3.4e+38 -1.99985778331757 -2.00009322166443 -2.00028586387634 -2.00097250938416 -2.0016405582428 -2.00216627120972 -2.00274896621704 -2.00377011299133 -2.00459432601929 -2.00703072547913 -2.00836730003357 -2.01001763343811 -2.01257467269897 -2.01466703414917 -2.0152850151062 -2.01358819007874 -2.0053539276123 -1.98078739643097 -1.92235505580902 -1.84506821632385 -1.75840556621552 -1.66808104515076 -1.58372151851654 -1.52502107620239 -1.47508120536804 -1.42845344543457 -1.38928294181824 -1.37097251415253 -1.39258086681366 -1.4311625957489 -1.47351253032684 -1.5141007900238 -1.56060934066772 -1.63480854034424 -1.7238941192627 -1.82147204875946 -1.92169082164764 -2.00879812240601 -2.053377866745 -2.08202314376831 -2.10365867614746 -2.12057399749756 -2.12203407287598 -2.08848309516907 -2.03374147415161 -1.9677746295929 -1.89954042434692 -1.84647786617279 -1.83985805511475 -1.84886145591736 -1.86273503303528 -1.88167452812195 -1.91696810722351 -1.98582494258881 -2.07626438140869 -2.17812490463257 -2.28836560249329 -2.40997791290283 -2.54902696609497 -2.70246267318726 -2.86858224868774 -3.05420207977295 -3.27340817451477 -3.54601621627808 -3.86280632019043 -4.22054290771484 -4.62640810012817 -5.09726238250732 -5.65861511230469 -6.30135917663574 -7.0307502746582 -7.86441040039062 -8.83363342285156 -9.98016357421875 -11.318696975708 -12.8685846328735 -14.650203704834 -16.6805610656738 -18.9708881378174 -21.5202255249023 -24.3310546875 -27.4095649719238 -30.7587642669678 -34.358512878418 -38.1194190979004 -41.8029136657715 -44.9220085144043 -46.6745338439941 -44.2484283447266 -40.1451377868652 -40.6452789306641 -33.5214538574219 -30.7670726776123 -26.8694744110107 -21.76003074646 -16.0160503387451 -10.2331390380859 -5.22209548950195 -3.13128995895386 -3.47762370109558 -2.79704117774963 -3.4e+38 -3.4e+38 -3.4e+38 -3.4e+38 -3.4e+38 -3.4e+38 -3.4e+38 -3.4e+38 -3.4e+38 -3.4e+38 -3.4e+38 -3.4e+38 -3.4e+38 -3.4e+38 -3.4e+38 -3.4e+38 -3.4e+38 -3.4e+38 -3.4e+38 -3.4e+38 -1.84492421150208 -2.0360689163208 -2.25740337371826 -2.67423152923584 -3.18830871582031 -3.91259622573853 -4.96543216705322 -6.57080554962158 -8.73841667175293 -11.4384155273438 -14.4255847930908 -17.0517826080322 -16.8660087585449 -15.3885078430176 -13.6301593780518 -12.2517728805542 -10.2944231033325 -7.40180969238281 -3.64607858657837 -3.4e+38 -3.4e+38 -3.4e+38 -3.4e+38 -3.4e+38 -3.4e+38 -3.4e+38 -3.4e+38 -3.4e+38 -3.4e+38 -3.4e+38 -3.4e+38 -3.4e+38 -3.4e+38 -3.4e+38 -3.4e+38 -3.4e+38 -2.46819400787354 -2.9222583770752 -3.7821204662323 -3.94613027572632 -8.69419956207275 -16.7750453948975 -21.3482780456543 -25.5012493133545 -31.7038841247559 -36.0407409667969 -38.3288955688477 -38.850284576416 -39.3121566772461 -39.7590179443359 -40.5208168029785 -41.5461235046387 -41.500560760498 -41.1264419555664 -41.5101356506348 -42.036434173584 -42.1420822143555 -42.4756507873535 -43.3714828491211 -44.4942359924316 -45.0726852416992 -45.3002395629883 -46.6983795166016 -48.0409736633301 -49.2499008178711 -50.6034240722656 -51.9598274230957 -52.9348526000977 -53.417308807373 -53.7511940002441 -53.4764595031738 -52.1731872558594 -50.9160308837891 -49.0815048217773 -47.0109786987305 -44.8093643188477 -41.5911254882812 -40.791088104248
-3.4e+38 -3.4e+38 -2.00011110305786 -2.0001266002655 -2.00014114379883 -2.00000667572021 -2.00002193450928 -2.00003695487976 -2.00005221366882 -2.00006699562073 -2.00008273124695 -2.00009799003601 -1.99996423721313 -1.9999794960022 -1.99999475479126 -1.99986100196838 -1.99987626075745 -1.99989235401154 -2.00005793571472 -2.00007462501526 -1.99994325637817 -1.99996089935303 -1.99997866153717 -1.99999582767487 -2.00001311302185 -2.00003099441528 -2.00005269050598 -2.00007796287537 -2.00010704994202 -2.00014400482178 -2.00017690658569 -2.00020098686218 -2.00036430358887 -2.00033688545227 -2.00033855438232 -3.4e+38 -3.4e+38 -3.4e+38 -1.99992108345032 -1.99985778331757 -2.00009322166443 -2.00085043907166 -2.00176620483398 -2.00252151489258 -2.00330710411072 -2.00433111190796 -2.00536942481995 -2.0069637298584 -2.00847744941711 -2.01133871078491 -2.01362895965576 -2.01566815376282 -2.01721453666687 -2.01774168014526 -2.01601815223694 -2.00869083404541 -1.98929274082184 -1.94880604743958 -1.89654183387756 -1.8409811258316 -1.78635120391846 -1.72840130329132 -1.65056300163269 -1.57044959068298 -1.49574339389801 -1.43288338184357 -1.40121805667877 -1.43635630607605 -1.49768698215485 -1.56154322624207 -1.62462592124939 -1.68402743339539 -1.72913062572479 -1.78061246871948 -1.84648740291595 -1.92079532146454 -1.98782432079315 -2.02999401092529 -2.05553579330444 -2.07461762428284 -2.08466911315918 -2.07976007461548 -2.05186653137207 -2.01195621490479 -1.97024428844452 -1.93573033809662 -1.911780834198 -1.88634145259857 -1.87168216705322 -1.86662268638611 -1.87404465675354 -1.90638267993927 -1.98717069625854 -2.09206938743591 -2.20830345153809 -2.33370614051819 -2.47139620780945 -2.63062143325806 -2.80740857124329 -3.00343775749207 -3.22263526916504 -3.47563624382019 -3.77398753166199 -4.11894464492798 -4.51295471191406 -4.96279096603394 -5.48048877716064 -6.08125400543213 -6.77104616165161 -7.55780601501465 -8.46010780334473 -9.50301551818848 -10.7147626876831 -12.1157112121582 -13.7273321151733 -15.5714540481567 -17.6702613830566 -20.046594619751 -22.7247524261475 -25.7412071228027 -29.1511554718018 -33.0378150939941 -37.5151138305664 -42.7060165405273 -48.6412544250488 -54.9109039306641 -59.9547691345215 -63.5386810302734 -59.3001594543457 -53.5091094970703 -44.2641677856445 -39.1126708984375 -33.0865783691406 -26.6919898986816 -20.4462356567383 -14.6670274734497 -9.72135353088379 -6.2588963508606 -3.47762370109558 -2.79704117774963 -2.39814615249634 -3.4e+38 -3.4e+38 -3.4e+38 -3.4e+38 -3.4e+38 -3.4e+38 -3.4e+38 -3.4e+38 -3.4e+38 -3.4e+38 -3.4e+38 -3.4e+38 -3.4e+38 -3.4e+38 -3.4e+38 -3.4e+38 -3.4e+38 -3.4e+38 -1.90168631076813 -1.84492421150208 -2.0360689163208 -2.4616265296936 -2.94949984550476 -3.54071617126465 -4.32579708099365 -5.40948009490967 -6.91985416412354 -8.86831283569336 -11.221622467041 -13.8313617706299 -16.1895313262939 -15.8266639709473 -14.9451332092285 -13.5774755477905 -12.0878124237061 -10.3284368515015 -7.62511301040649 -3.95117616653442 -3.4e+38 -3.4e+38 -3.4e+38 -3.4e+38 -3.4e+38 -3.4e+38 -3.4e+38 -3.4e+38 -3.4e+38 -3.4e+38 -3.4e+38 -3.4e+38 -3.4e+38 -3.4e+38 -3.4e+38 -3.4e+38 -2.54985880851746 -2.46819400787354 -2.9222583770752 -3.7821204662323 -9.34916687011719 -19.6954936981201 -20.9638938903809 -24.4707431793213 -30.3797435760498 -35.2839012145996 -37.1302375793457 -37.8781661987305 -38.1330680847168 -38.8514022827148 -39.2273864746094 -39.845401763916 -40.3698577880859 -40.0753784179688 -40.1699295043945 -40.3657302856445 -40.8765640258789 -41.3489379882812 -41.7548446655273 -42.3500709533691 -42.8770446777344 -43.3585968017578 -43.8368110656738 -44.4457244873047 -45.2217102050781 -46.2084541320801 -47.5038795471191 -48.2598190307617 -47.6045989990234 -47.9032249450684 -48.8544845581055 -48.2177848815918 -47.5640678405762 -45.6750221252441 -42.1688499450684 -40.1778411865234 -38.9125518798828 -36.3907928466797 -36.9726142883301
-3.4e+38 -2.00003528594971 -2.00005030632019 -2.0000958442688 -2.00011110305786 -1.99997687339783 -1.99999165534973 -2.00000691413879 -2.00002217292786 -2.00003719329834 -2.00005269050598 -2.00006771087646 -2.00008296966553 -1.99994933605194 -1.99996447563171 -1.99997985363007 -1.999995470047 -2.0000114440918 -2.00002813339233 -2.00004506111145 -2.00006294250488 -1.99993216991425 -1.99995148181915 -1.99997186660767 -1.99999380111694 -2.00001811981201 -2.00004649162292 -2.00007891654968 -2.00011587142944 -2.00015687942505 -2.00019669532776 -2.00023126602173 -2.00025653839111 -2.00026082992554 -2.00025129318237 -2.00016522407532 -3.4e+38 -3.4e+38 -2.00019216537476 -1.99998438358307 -2.00063014030457 -2.00165629386902 -2.00256943702698 -2.00349998474121 -2.00433468818665 -2.00542593002319 -2.00698852539062 -2.00850296020508 -2.01065111160278 -2.01276826858521 -2.01567912101746 -2.01892232894897 -2.02133202552795 -2.02194952964783 -2.02205371856689 -2.02060127258301 -2.01239776611328 -1.98113596439362 -1.94720017910004 -1.92044973373413 -1.90516757965088 -1.88557231426239 -1.77963435649872 -1.66658473014832 -1.56018710136414 -1.45889115333557 -1.38658058643341 -1.46614921092987 -1.56452357769012 -1.65427958965302 -1.73941493034363 -1.81457233428955 -1.81481873989105 -1.82388079166412 -1.86417138576508 -1.92532324790955 -1.98840188980103 -2.01952505111694 -2.0382194519043 -2.05038952827454 -2.05925011634827 -2.05854344367981 -2.02823376655579 -1.99207019805908 -1.96396720409393 -1.95858883857727 -1.96989369392395 -1.92040371894836 -1.88337934017181 -1.86252212524414 -1.84994792938232 -1.86042237281799 -1.97168707847595 -2.10280323028564 -2.23529958724976 -2.37081956863403 -2.51817440986633 -2.69855618476868 -2.89848041534424 -3.11746740341187 -3.36163139343262 -3.63932943344116 -3.96220850944519 -4.33156061172485 -4.75298023223877 -5.2335410118103 -5.78388690948486 -6.41851902008057 -7.14380359649658 -7.9714207649231 -8.91803359985352 -10.0055093765259 -11.2606506347656 -12.7027587890625 -14.3537788391113 -16.2381935119629 -18.3829250335693 -20.820707321167 -23.5918941497803 -26.7579364776611 -30.4157066345215 -34.7243804931641 -39.9481544494629 -46.5087432861328 -55.0304374694824 -66.1194763183594 -78.6909790039062 -80.7148590087891 -79.5824966430664 -79.5349273681641 -62.727409362793 -50.2731285095215 -39.9950485229492 -31.5543212890625 -24.5151557922363 -18.5961894989014 -13.7109460830688 -9.83936595916748 -6.85653495788574 -5.09582424163818 -3.76205444335938 -2.42736649513245 -3.4e+38 -3.4e+38 -3.4e+38 -3.4e+38 -3.4e+38 -3.4e+38 -3.4e+38 -3.4e+38 -3.4e+38 -3.4e+38 -3.4e+38 -3.4e+38 -3.4e+38 -3.4e+38 -3.4e+38 -3.4e+38 -3.4e+38 -2.01441287994385 -1.95844829082489 -2.32702803611755 -2.69775032997131 -3.14451742172241 -3.71261787414551 -4.45476865768433 -5.45002508163452 -6.83980798721313 -8.577073097229 -10.6345825195312 -12.8928489685059 -14.8989019393921 -15.3675146102905 -15.4045286178589 -13.8358287811279 -12.5674915313721 -11.5256118774414 -9.53690147399902 -6.5484094619751 -3.64924669265747 -3.4e+38 -3.4e+38 -3.4e+38 -3.4e+38 -3.4e+38 -3.4e+38 -3.4e+38 -3.4e+38 -3.4e+38 -3.4e+38 -3.4e+38 -3.4e+38 -3.4e+38 -2.54361605644226 -2.99249672889709 -2.54985880851746 -4.38967514038086 -6.20486307144165 -8.31177711486816 -12.4885816574097 -20.4296894073486 -22.8011417388916 -25.712423324585 -30.6887893676758 -35.5192985534668 -36.5726623535156 -37.067008972168 -38.2383193969727 -38.8952484130859 -39.2815399169922 -39.3104209899902 -39.4556083679199 -39.5377426147461 -39.7947006225586 -40.0802192687988 -40.3404426574707 -40.6925086975098 -41.2672729492188 -41.487377166748 -41.9707069396973 -42.2767486572266 -42.3552284240723 -42.7570724487305 -42.7050666809082 -43.5159149169922 -45.5509338378906 -44.1402053833008 -41.9844512939453 -40.1416473388672 -39.9022102355957 -40.2231712341309 -40.1756134033203 -37.9399147033691 -34.6247863769531 -30.945484161377 -30.3033447265625 -30.5093822479248 -31.0613327026367
